ncols        499
nrows        39
xllcorner    285360.589657
yllcorner    5551116.13264
cellsize     1000.000000000000
NODATA_value -9999
-9999 -9999 -9999 -9999 -9999 -9999 -9999 -9999 -9999 -9999 -9999 -9999 -9999 -9999 -9999 -9999 -9999 -9999 -9999 -9999 -9999 -9999 -9999 -9999 -9999 -9999 -9999 -9999 -9999 -9999 -9999 -9999 -9999 -9999 -9999 -9999 -9999 -9999 -9999 -9999 -9999 -9999 -9999 -9999 -9999 -9999 -9999 -9999 -9999 -9999 -9999 -9999 -9999 -9999 -9999 825 855 893 907 906 856 821 858 -9999 -9999 -9999 -9999 -9999 -9999 -9999 -9999 -9999 -9999 824 870 874 839 853 850 811 798 792 818 832 811 768 704 696 660 585 548 546 519 473 430 410 414 401 372 353 341 333 319 307 302 309 311 327 330 316 300 281 262 249 246 244 242 240 247 237 220 217 227 253 293 323 323 324 367 381 339 310 328 341 314 289 267 248 240 238 241 237 232 225 212 201 194 192 199 209 221 224 207 176 157 156 164 178 194 178 157 159 170 182 172 158 157 160 161 158 161 188 229 253 262 264 250 250 262 296 299 305 330 320 307 290 297 310 315 319 321 333 336 326 305 306 319 318 309 302 297 289 278 273 272 277 260 244 240 243 266 271 242 224 227 231 233 234 237 244 263 281 277 259 250 256 273 291 335 356 338 322 325 326 338 337 330 319 302 292 293 304 309 304 302 312 336 349 370 400 413 411 394 394 382 364 411 470 460 437 460 512 557 585 506 417 373 347 339 344 360 384 403 416 430 441 459 470 473 475 468 471 469 449 445 441 421 400 377 357 385 405 418 429 441 431 439 464 419 375 371 375 -9999 -9999 -9999 -9999 -9999 -9999 -9999 -9999 -9999 -9999 -9999 -9999 -9999 -9999 -9999 -9999 -9999 -9999 -9999 -9999 -9999 -9999 -9999 -9999 -9999 -9999 -9999 -9999 -9999 -9999 -9999 -9999 -9999 -9999 -9999 -9999 -9999 -9999 -9999 -9999 -9999 -9999 -9999 -9999 -9999 -9999 376 353 326 -9999 -9999 -9999 -9999 -9999 -9999 -9999 -9999 -9999 -9999 -9999 -9999 -9999 -9999 -9999 -9999 -9999 -9999 -9999 -9999 -9999 -9999 -9999 -9999 -9999 -9999 -9999 -9999 -9999 -9999 -9999 -9999 -9999 -9999 -9999 -9999 -9999 -9999 -9999 -9999 -9999 -9999 -9999 -9999 -9999 -9999 -9999 -9999 -9999 -9999 -9999 -9999 -9999 -9999 -9999 -9999 -9999 -9999 -9999 -9999 -9999 -9999 -9999 -9999 -9999 -9999 -9999 -9999 -9999 -9999 -9999 -9999 -9999 -9999 -9999 -9999 -9999 -9999 -9999 -9999 -9999 -9999 -9999 -9999 -9999 -9999 -9999 -9999 -9999 -9999 -9999 -9999 -9999 -9999 -9999 -9999 -9999 -9999 -9999 -9999 -9999 -9999 -9999 -9999 -9999 -9999 -9999 -9999 -9999 -9999 -9999 -9999 -9999 -9999 -9999 -9999 -9999 -9999 -9999 -9999 -9999 -9999 -9999 -9999 -9999 -9999 -9999 -9999 -9999 -9999 -9999 -9999 -9999 -9999 -9999 -9999 -9999 -9999 -9999 -9999 -9999 -9999 -9999 -9999 -9999 -9999 -9999 -9999
-9999 -9999 -9999 -9999 -9999 -9999 -9999 -9999 -9999 -9999 -9999 -9999 -9999 -9999 -9999 -9999 -9999 -9999 -9999 -9999 -9999 -9999 -9999 -9999 -9999 -9999 -9999 -9999 -9999 -9999 -9999 -9999 -9999 -9999 -9999 -9999 -9999 -9999 -9999 -9999 -9999 -9999 -9999 -9999 -9999 -9999 -9999 -9999 -9999 -9999 -9999 -9999 -9999 731 756 810 883 908 932 948 931 898 888 894 934 -9999 -9999 -9999 -9999 -9999 -9999 -9999 879 876 863 846 850 873 861 826 824 815 821 793 712 680 621 611 613 572 502 480 459 411 370 359 366 356 333 331 331 324 314 303 294 291 292 306 315 312 304 292 283 285 290 291 284 268 248 228 215 216 225 252 293 336 346 319 319 318 304 297 302 294 282 271 258 238 225 223 221 217 216 224 236 216 194 189 194 202 206 212 214 193 165 159 164 175 194 181 159 157 163 164 158 158 160 164 170 162 158 173 211 235 245 251 238 240 243 264 285 297 307 319 300 309 330 354 349 328 316 323 327 325 314 305 310 312 311 311 308 301 292 292 278 263 247 266 279 268 280 283 254 235 235 239 241 236 234 238 256 267 258 247 245 252 272 295 328 359 355 341 335 328 310 295 292 289 284 282 292 296 297 297 293 300 310 325 352 386 383 377 365 347 333 330 368 430 437 426 462 510 541 570 545 485 410 359 345 329 312 315 339 364 381 394 415 436 448 451 452 438 433 423 425 418 394 380 362 362 383 399 413 430 440 418 418 447 424 374 -9999 378 -9999 -9999 -9999 -9999 -9999 -9999 -9999 -9999 -9999 -9999 -9999 -9999 -9999 -9999 -9999 -9999 -9999 -9999 -9999 -9999 -9999 -9999 -9999 -9999 -9999 -9999 -9999 -9999 -9999 -9999 -9999 -9999 -9999 -9999 -9999 -9999 -9999 -9999 -9999 -9999 -9999 -9999 -9999 -9999 -9999 -9999 424 422 387 350 -9999 -9999 -9999 -9999 -9999 -9999 -9999 -9999 -9999 -9999 -9999 -9999 -9999 -9999 -9999 -9999 -9999 -9999 -9999 -9999 -9999 -9999 -9999 -9999 -9999 -9999 -9999 -9999 -9999 -9999 -9999 -9999 -9999 -9999 -9999 -9999 -9999 -9999 -9999 -9999 -9999 -9999 -9999 -9999 -9999 -9999 -9999 -9999 -9999 -9999 -9999 -9999 -9999 -9999 -9999 -9999 -9999 -9999 -9999 -9999 -9999 -9999 -9999 -9999 -9999 -9999 -9999 -9999 -9999 -9999 -9999 -9999 -9999 -9999 -9999 -9999 -9999 -9999 -9999 -9999 -9999 -9999 -9999 -9999 -9999 -9999 -9999 -9999 -9999 -9999 -9999 -9999 -9999 -9999 -9999 -9999 -9999 -9999 -9999 -9999 -9999 -9999 -9999 -9999 -9999 -9999 -9999 -9999 -9999 -9999 -9999 -9999 -9999 -9999 -9999 -9999 -9999 -9999 -9999 -9999 -9999 -9999 -9999 -9999 -9999 -9999 -9999 -9999 -9999 -9999 -9999 -9999 -9999 -9999 -9999 -9999 -9999 -9999 -9999 -9999 -9999 -9999 -9999 -9999 -9999 -9999 -9999
-9999 -9999 -9999 -9999 -9999 -9999 -9999 -9999 -9999 -9999 -9999 -9999 -9999 -9999 -9999 -9999 -9999 -9999 -9999 -9999 -9999 -9999 -9999 -9999 -9999 -9999 -9999 -9999 -9999 -9999 -9999 -9999 -9999 -9999 -9999 -9999 -9999 -9999 -9999 -9999 -9999 -9999 -9999 -9999 -9999 -9999 -9999 -9999 -9999 -9999 -9999 -9999 -9999 764 777 811 872 914 925 935 957 974 969 956 969 998 -9999 -9999 -9999 -9999 -9999 901 920 913 907 883 878 887 874 855 844 812 750 679 622 589 557 522 489 459 418 388 369 351 320 306 328 333 322 318 330 336 320 304 293 285 281 282 285 293 298 293 291 299 307 303 289 277 264 235 217 228 245 249 277 324 351 310 283 283 294 292 277 272 263 257 244 229 218 219 218 214 208 224 264 237 196 182 186 198 207 204 199 187 164 159 167 168 175 180 168 157 156 154 156 161 168 174 184 172 160 166 195 219 226 230 224 234 258 283 284 295 300 316 300 322 348 358 352 339 320 316 321 322 313 296 293 296 304 304 297 290 296 296 285 272 247 251 256 251 239 234 234 236 238 236 236 231 229 232 239 241 240 240 244 267 308 347 365 379 378 369 346 318 294 279 271 273 276 281 284 286 289 288 288 294 299 306 320 329 327 332 334 322 310 309 318 349 387 399 428 459 482 493 490 473 454 392 347 331 314 299 303 313 325 339 354 372 390 412 433 422 406 401 399 386 371 351 336 357 364 370 377 403 442 426 392 398 397 -9999 -9999 -9999 -9999 -9999 -9999 -9999 -9999 -9999 -9999 -9999 -9999 -9999 -9999 -9999 -9999 -9999 -9999 -9999 -9999 -9999 -9999 -9999 -9999 -9999 -9999 -9999 -9999 -9999 -9999 -9999 -9999 -9999 -9999 -9999 -9999 -9999 -9999 -9999 -9999 -9999 -9999 -9999 -9999 -9999 -9999 -9999 -9999 524 488 498 496 431 370 340 -9999 -9999 269 -9999 -9999 -9999 -9999 -9999 -9999 -9999 -9999 -9999 -9999 -9999 -9999 -9999 -9999 -9999 -9999 -9999 -9999 -9999 -9999 -9999 -9999 -9999 -9999 -9999 -9999 -9999 -9999 -9999 -9999 -9999 -9999 -9999 -9999 -9999 -9999 -9999 -9999 -9999 -9999 -9999 -9999 -9999 -9999 -9999 -9999 -9999 -9999 -9999 -9999 -9999 -9999 -9999 -9999 -9999 -9999 -9999 -9999 -9999 -9999 -9999 -9999 -9999 -9999 -9999 -9999 -9999 -9999 -9999 -9999 -9999 -9999 -9999 -9999 -9999 -9999 -9999 -9999 -9999 -9999 -9999 -9999 -9999 -9999 -9999 -9999 -9999 -9999 -9999 -9999 -9999 -9999 -9999 -9999 -9999 -9999 -9999 -9999 -9999 -9999 -9999 -9999 -9999 -9999 -9999 -9999 -9999 -9999 -9999 -9999 -9999 -9999 -9999 -9999 -9999 -9999 -9999 -9999 -9999 -9999 -9999 -9999 -9999 -9999 -9999 -9999 -9999 -9999 -9999 -9999 -9999 -9999 -9999 -9999 -9999 -9999 -9999 -9999 -9999 -9999 -9999 -9999
-9999 -9999 -9999 -9999 -9999 -9999 -9999 -9999 -9999 -9999 -9999 -9999 -9999 -9999 -9999 -9999 -9999 -9999 -9999 -9999 -9999 -9999 -9999 -9999 -9999 -9999 -9999 -9999 -9999 -9999 -9999 -9999 -9999 -9999 -9999 -9999 -9999 -9999 -9999 -9999 -9999 -9999 -9999 -9999 934 924 912 905 916 926 -9999 -9999 809 795 810 841 881 908 925 933 944 962 970 978 988 992 1010 -9999 -9999 964 936 935 947 931 937 930 907 888 847 789 768 726 645 587 551 533 515 472 424 394 370 359 351 349 313 277 288 299 297 304 315 330 333 314 295 284 279 275 269 272 286 289 288 298 302 290 277 268 255 237 220 232 256 259 267 276 283 269 267 286 318 299 257 236 221 220 228 218 202 199 204 212 209 209 228 213 185 177 187 203 211 206 192 171 160 168 181 180 178 185 182 167 160 161 169 178 182 186 197 185 163 160 175 196 215 219 213 233 248 250 260 283 299 317 298 302 325 346 351 343 332 317 307 311 316 314 304 290 296 301 294 282 285 285 275 264 243 232 225 220 216 219 223 228 233 229 227 225 225 235 250 243 241 243 250 286 334 360 363 356 354 358 363 356 331 299 279 270 268 270 276 283 284 283 283 285 295 307 322 320 308 308 313 305 298 298 300 315 338 362 385 413 436 437 432 438 463 438 382 347 321 298 289 287 290 297 304 317 332 359 387 400 387 375 373 365 355 343 330 333 328 330 350 386 427 439 398 385 377 369 -9999 -9999 -9999 -9999 -9999 -9999 -9999 -9999 -9999 -9999 -9999 -9999 -9999 -9999 -9999 -9999 -9999 -9999 -9999 -9999 -9999 -9999 -9999 -9999 -9999 -9999 -9999 -9999 -9999 -9999 -9999 -9999 -9999 -9999 -9999 -9999 -9999 -9999 -9999 -9999 -9999 -9999 -9999 -9999 -9999 -9999 -9999 563 529 569 585 518 441 383 341 305 281 265 255 -9999 -9999 -9999 -9999 -9999 -9999 -9999 -9999 -9999 -9999 -9999 -9999 -9999 -9999 -9999 -9999 -9999 -9999 -9999 -9999 -9999 -9999 -9999 -9999 -9999 -9999 -9999 -9999 -9999 -9999 -9999 -9999 -9999 -9999 -9999 -9999 -9999 -9999 -9999 -9999 -9999 -9999 -9999 -9999 -9999 -9999 -9999 -9999 -9999 -9999 -9999 -9999 -9999 -9999 -9999 -9999 -9999 -9999 -9999 -9999 -9999 -9999 -9999 -9999 -9999 -9999 -9999 -9999 -9999 -9999 -9999 -9999 -9999 -9999 -9999 -9999 -9999 -9999 -9999 -9999 -9999 -9999 -9999 -9999 -9999 -9999 -9999 -9999 -9999 -9999 -9999 -9999 -9999 -9999 -9999 -9999 -9999 -9999 -9999 -9999 -9999 -9999 -9999 -9999 -9999 -9999 -9999 -9999 -9999 -9999 -9999 -9999 -9999 -9999 -9999 -9999 -9999 -9999 -9999 -9999 -9999 -9999 -9999 -9999 -9999 -9999 -9999 -9999 -9999 -9999 -9999 -9999 -9999 -9999 -9999 -9999 -9999 -9999 -9999 -9999
-9999 -9999 -9999 -9999 -9999 -9999 -9999 -9999 -9999 -9999 -9999 -9999 -9999 -9999 -9999 -9999 -9999 -9999 -9999 -9999 -9999 -9999 -9999 -9999 -9999 -9999 -9999 -9999 -9999 -9999 -9999 -9999 -9999 -9999 -9999 -9999 -9999 -9999 877 869 897 929 936 928 921 922 921 905 892 894 915 910 872 837 846 888 948 968 981 994 995 1009 1010 1012 1027 1017 1013 1041 -9999 1083 1035 1002 982 974 968 950 892 827 772 696 632 633 585 552 513 491 452 407 381 366 355 352 350 353 332 297 267 258 259 281 299 305 319 325 316 307 306 307 296 274 267 273 281 298 298 282 271 265 259 254 234 226 233 238 243 247 255 264 271 320 361 337 288 241 206 195 205 210 200 200 203 209 210 206 201 192 181 175 180 186 197 195 177 161 163 186 207 208 198 192 188 191 197 203 215 232 227 211 205 198 171 159 161 174 197 204 207 227 239 254 272 294 316 316 294 312 326 335 339 336 328 321 309 302 308 310 311 305 290 290 290 280 274 275 271 265 246 228 220 214 211 216 220 223 226 222 220 222 228 243 265 256 243 245 261 295 337 354 348 333 322 324 329 340 355 348 326 294 273 266 272 279 282 277 274 277 286 303 328 334 313 297 296 298 297 298 294 306 330 349 354 365 387 399 416 431 445 436 422 402 353 311 290 282 279 280 286 293 300 313 330 347 354 344 342 337 334 339 333 310 308 324 355 388 421 433 398 368 374 419 455 -9999 -9999 -9999 -9999 -9999 -9999 -9999 -9999 -9999 -9999 -9999 -9999 -9999 -9999 -9999 -9999 -9999 -9999 -9999 -9999 -9999 -9999 -9999 -9999 -9999 -9999 -9999 -9999 -9999 -9999 -9999 -9999 -9999 -9999 -9999 -9999 -9999 -9999 -9999 -9999 -9999 -9999 -9999 -9999 -9999 -9999 587 585 610 639 621 537 446 381 333 298 275 260 249 245 -9999 243 242 -9999 -9999 -9999 -9999 -9999 -9999 -9999 -9999 -9999 -9999 -9999 -9999 -9999 -9999 -9999 -9999 -9999 -9999 -9999 -9999 -9999 -9999 -9999 -9999 -9999 -9999 -9999 -9999 -9999 -9999 -9999 -9999 -9999 -9999 -9999 -9999 -9999 -9999 -9999 -9999 -9999 -9999 -9999 -9999 -9999 -9999 -9999 -9999 -9999 -9999 -9999 -9999 -9999 -9999 -9999 -9999 -9999 -9999 -9999 -9999 -9999 -9999 -9999 -9999 -9999 -9999 -9999 -9999 -9999 -9999 -9999 -9999 -9999 -9999 -9999 -9999 -9999 -9999 -9999 -9999 -9999 -9999 -9999 -9999 -9999 -9999 -9999 -9999 -9999 -9999 -9999 -9999 -9999 -9999 -9999 -9999 -9999 -9999 -9999 -9999 -9999 -9999 -9999 -9999 -9999 -9999 -9999 -9999 -9999 -9999 -9999 -9999 -9999 -9999 -9999 -9999 -9999 -9999 -9999 -9999 -9999 -9999 -9999 -9999 -9999 -9999 -9999 -9999 -9999 -9999 -9999 -9999 -9999 -9999 -9999
-9999 -9999 -9999 -9999 -9999 -9999 -9999 -9999 -9999 -9999 -9999 -9999 -9999 -9999 -9999 -9999 -9999 -9999 -9999 -9999 -9999 -9999 -9999 -9999 -9999 -9999 -9999 -9999 -9999 -9999 -9999 -9999 -9999 -9999 -9999 -9999 -9999 835 826 796 815 872 898 908 914 921 914 910 899 896 880 902 941 918 880 886 932 968 977 998 1004 1000 1005 1015 1008 1000 981 953 988 1102 1133 1090 1039 1007 961 866 776 704 680 638 573 582 550 490 437 395 374 360 350 344 342 336 335 353 354 324 291 290 290 290 292 288 292 303 315 320 319 313 311 303 286 268 268 286 285 273 268 267 265 252 232 219 220 224 230 244 282 294 267 304 311 296 287 249 216 199 190 192 193 192 194 191 194 197 194 187 176 168 165 164 163 162 159 159 166 176 194 210 216 214 205 197 207 225 249 264 261 250 236 221 193 170 161 159 168 182 213 244 262 284 302 307 302 284 280 313 332 333 328 323 322 317 309 299 301 304 304 306 300 284 280 287 278 274 269 261 246 229 221 213 211 213 217 218 217 217 218 222 229 244 263 257 255 267 278 303 334 342 342 329 316 312 313 313 319 324 336 320 287 270 265 272 278 273 270 275 282 286 306 328 325 310 300 293 291 291 291 305 327 351 349 339 342 357 379 392 405 416 413 424 415 380 334 304 289 280 281 286 294 302 309 321 327 323 330 328 328 332 320 298 296 317 337 362 400 402 373 392 452 527 550 521 491 -9999 -9999 -9999 -9999 -9999 -9999 -9999 -9999 -9999 -9999 -9999 -9999 -9999 -9999 -9999 -9999 -9999 -9999 -9999 -9999 -9999 -9999 -9999 -9999 -9999 -9999 -9999 -9999 -9999 -9999 -9999 -9999 -9999 -9999 -9999 -9999 -9999 -9999 -9999 -9999 -9999 -9999 -9999 -9999 -9999 699 712 727 655 586 524 424 359 316 283 265 256 252 250 250 252 -9999 -9999 -9999 -9999 -9999 -9999 -9999 -9999 -9999 -9999 -9999 -9999 -9999 -9999 -9999 -9999 -9999 -9999 -9999 -9999 -9999 -9999 -9999 -9999 -9999 -9999 -9999 -9999 -9999 -9999 -9999 -9999 -9999 -9999 -9999 -9999 -9999 -9999 -9999 -9999 -9999 -9999 -9999 -9999 -9999 -9999 -9999 -9999 -9999 -9999 -9999 -9999 -9999 -9999 -9999 -9999 -9999 -9999 -9999 -9999 -9999 -9999 -9999 -9999 -9999 -9999 -9999 -9999 -9999 -9999 -9999 -9999 -9999 -9999 -9999 -9999 -9999 -9999 -9999 -9999 -9999 -9999 -9999 -9999 -9999 -9999 -9999 -9999 -9999 -9999 -9999 -9999 -9999 -9999 -9999 -9999 -9999 -9999 -9999 -9999 -9999 -9999 -9999 -9999 -9999 -9999 -9999 -9999 -9999 -9999 -9999 -9999 -9999 -9999 -9999 -9999 -9999 -9999 -9999 -9999 -9999 -9999 -9999 -9999 -9999 -9999 -9999 -9999 -9999 -9999 -9999 -9999 -9999 -9999 -9999
-9999 -9999 -9999 -9999 -9999 -9999 -9999 -9999 -9999 -9999 -9999 -9999 -9999 -9999 -9999 -9999 -9999 -9999 -9999 -9999 -9999 -9999 -9999 -9999 -9999 -9999 -9999 -9999 -9999 -9999 -9999 -9999 -9999 -9999 -9999 -9999 740 740 730 716 735 802 862 896 897 900 891 882 895 884 853 864 927 936 915 889 901 934 949 942 938 966 998 986 938 929 913 878 896 1050 1112 1044 1014 1005 963 869 752 642 573 510 505 518 475 398 348 332 339 350 336 329 337 329 330 353 356 323 293 297 303 304 308 303 291 282 283 294 305 307 306 305 305 296 273 266 270 270 273 272 261 242 225 218 224 221 219 228 249 236 221 229 235 235 245 224 196 192 190 184 178 172 169 171 182 191 178 171 170 166 163 161 161 161 161 165 174 190 202 206 210 217 211 201 208 225 251 265 264 259 254 237 216 198 174 162 160 176 206 236 260 272 273 269 272 261 274 309 322 319 317 314 312 308 305 299 292 292 295 296 296 288 272 280 280 266 262 241 225 224 224 221 216 215 214 214 216 224 234 235 234 242 262 268 289 332 339 324 321 319 320 319 305 306 306 302 296 295 302 309 296 277 266 266 268 266 269 277 277 273 282 318 352 367 348 317 327 324 306 307 321 340 336 327 328 330 336 335 344 362 376 391 403 407 402 387 362 330 297 291 305 315 323 318 310 308 318 313 301 297 296 291 289 297 311 335 385 405 379 413 507 562 563 554 545 -9999 -9999 -9999 -9999 -9999 -9999 -9999 -9999 -9999 -9999 -9999 -9999 -9999 -9999 -9999 -9999 -9999 -9999 -9999 -9999 -9999 -9999 -9999 -9999 -9999 -9999 -9999 -9999 -9999 -9999 -9999 -9999 -9999 -9999 -9999 -9999 -9999 -9999 -9999 -9999 -9999 -9999 -9999 -9999 -9999 -9999 -9999 755 695 631 538 438 373 335 296 274 265 266 267 263 263 257 259 -9999 -9999 238 231 226 -9999 -9999 -9999 -9999 -9999 -9999 -9999 -9999 -9999 -9999 -9999 -9999 -9999 -9999 -9999 -9999 -9999 -9999 -9999 -9999 -9999 -9999 -9999 -9999 -9999 -9999 -9999 -9999 -9999 -9999 -9999 -9999 -9999 -9999 -9999 -9999 -9999 -9999 -9999 -9999 -9999 -9999 -9999 -9999 -9999 -9999 -9999 -9999 -9999 -9999 -9999 -9999 -9999 -9999 -9999 -9999 -9999 -9999 -9999 -9999 -9999 -9999 -9999 -9999 -9999 -9999 -9999 -9999 -9999 -9999 -9999 -9999 -9999 -9999 -9999 -9999 -9999 -9999 -9999 -9999 -9999 -9999 -9999 -9999 -9999 -9999 -9999 -9999 -9999 -9999 -9999 -9999 -9999 -9999 -9999 -9999 -9999 -9999 -9999 -9999 -9999 -9999 -9999 -9999 -9999 -9999 -9999 -9999 -9999 -9999 -9999 -9999 -9999 -9999 -9999 -9999 -9999 -9999 -9999 -9999 -9999 -9999 -9999 -9999 -9999 -9999 -9999 -9999
-9999 -9999 -9999 -9999 -9999 -9999 -9999 -9999 -9999 -9999 -9999 -9999 -9999 -9999 -9999 -9999 -9999 -9999 -9999 -9999 -9999 -9999 -9999 -9999 -9999 -9999 -9999 -9999 -9999 -9999 -9999 -9999 -9999 -9999 -9999 -9999 709 711 688 730 794 871 909 920 908 896 880 857 855 843 818 819 846 876 927 931 897 896 908 902 903 944 957 905 909 895 835 772 831 941 992 918 903 913 882 826 711 578 528 457 423 427 415 369 327 315 315 319 319 319 323 309 309 327 343 318 297 295 305 307 316 315 301 290 285 281 280 285 290 294 297 295 285 265 254 256 265 260 250 235 222 218 230 220 202 195 200 195 199 212 228 232 219 204 192 184 180 176 171 173 174 174 184 211 231 233 228 224 215 199 187 177 172 182 213 237 241 234 225 223 212 209 221 260 277 266 255 241 238 233 225 212 191 175 163 165 193 221 239 254 255 246 240 247 268 291 307 305 298 298 300 296 297 297 294 285 287 285 281 281 277 266 265 263 255 235 231 229 239 266 274 263 251 236 232 248 280 287 278 283 287 277 296 335 355 349 323 303 298 283 279 292 302 304 294 291 292 291 285 281 276 265 261 262 265 270 267 263 266 288 328 369 362 329 373 409 385 340 328 338 330 318 320 320 324 316 305 308 327 350 362 372 380 391 397 386 345 323 303 298 301 297 302 303 294 283 275 273 281 283 280 284 295 309 351 396 393 411 463 515 517 537 572 607 -9999 -9999 -9999 -9999 -9999 -9999 -9999 -9999 -9999 -9999 -9999 -9999 -9999 -9999 -9999 -9999 -9999 -9999 -9999 -9999 -9999 -9999 -9999 -9999 -9999 -9999 -9999 -9999 -9999 -9999 -9999 -9999 -9999 -9999 -9999 -9999 -9999 -9999 -9999 -9999 -9999 -9999 -9999 -9999 -9999 -9999 707 644 571 511 467 425 368 314 288 279 289 286 289 286 273 272 262 250 242 235 233 -9999 -9999 -9999 -9999 -9999 -9999 -9999 -9999 -9999 -9999 -9999 -9999 -9999 -9999 -9999 -9999 -9999 -9999 -9999 -9999 -9999 -9999 -9999 -9999 -9999 -9999 -9999 -9999 -9999 -9999 -9999 -9999 -9999 -9999 -9999 -9999 -9999 -9999 -9999 -9999 -9999 -9999 -9999 -9999 -9999 -9999 -9999 -9999 -9999 -9999 -9999 -9999 -9999 -9999 -9999 -9999 -9999 -9999 -9999 -9999 -9999 -9999 -9999 -9999 -9999 -9999 -9999 -9999 -9999 -9999 -9999 -9999 -9999 -9999 -9999 -9999 -9999 -9999 -9999 -9999 -9999 -9999 -9999 -9999 -9999 -9999 -9999 -9999 -9999 -9999 -9999 -9999 -9999 -9999 -9999 -9999 -9999 -9999 -9999 -9999 -9999 -9999 -9999 -9999 -9999 -9999 -9999 -9999 -9999 -9999 -9999 -9999 -9999 -9999 -9999 -9999 -9999 -9999 -9999 -9999 -9999 -9999 -9999 -9999 -9999 -9999 -9999 -9999
-9999 -9999 -9999 -9999 -9999 -9999 -9999 -9999 -9999 -9999 -9999 -9999 -9999 -9999 -9999 -9999 -9999 -9999 -9999 -9999 -9999 -9999 -9999 -9999 -9999 -9999 -9999 -9999 -9999 -9999 -9999 -9999 -9999 -9999 -9999 -9999 700 713 675 696 811 887 916 931 912 888 895 889 862 838 817 776 766 818 911 954 896 869 876 870 885 918 887 841 889 868 776 723 783 840 821 784 774 766 732 713 639 514 427 374 350 355 379 359 372 381 349 353 345 349 338 311 305 307 314 314 315 305 303 293 282 277 268 265 288 305 302 290 275 267 277 286 284 276 266 255 246 244 245 235 221 219 227 214 194 183 183 184 193 206 225 236 219 194 181 179 174 170 172 184 196 216 257 293 301 289 284 277 265 252 241 225 215 216 244 257 251 242 236 228 215 213 228 286 292 258 238 219 206 199 192 185 180 178 167 160 177 211 234 247 249 236 236 257 278 286 288 290 293 283 289 295 290 285 284 276 276 279 271 274 277 273 257 255 247 226 223 224 256 320 344 337 329 305 289 284 290 302 303 300 291 270 278 316 347 348 323 287 274 262 274 297 307 309 302 289 289 296 298 293 284 272 261 260 262 261 259 256 261 264 271 291 319 319 349 381 393 390 380 368 350 326 315 314 325 327 308 296 302 326 331 337 345 354 358 352 337 331 317 290 283 291 285 275 267 269 279 285 288 282 278 280 286 291 310 369 415 414 403 431 466 509 555 605 644 -9999 -9999 613 661 -9999 792 -9999 -9999 -9999 -9999 -9999 -9999 -9999 -9999 -9999 -9999 -9999 -9999 -9999 -9999 -9999 -9999 -9999 -9999 -9999 -9999 -9999 -9999 -9999 -9999 -9999 -9999 -9999 -9999 -9999 -9999 -9999 -9999 -9999 -9999 -9999 -9999 -9999 -9999 -9999 -9999 572 551 532 545 499 417 349 310 298 307 302 315 314 301 282 266 255 247 244 256 -9999 -9999 -9999 -9999 -9999 -9999 -9999 -9999 -9999 -9999 -9999 -9999 -9999 -9999 -9999 -9999 -9999 -9999 -9999 -9999 -9999 -9999 -9999 -9999 -9999 -9999 -9999 -9999 -9999 -9999 -9999 -9999 -9999 -9999 -9999 -9999 -9999 -9999 -9999 -9999 -9999 -9999 -9999 -9999 -9999 -9999 -9999 -9999 -9999 -9999 -9999 -9999 -9999 -9999 -9999 -9999 -9999 -9999 -9999 -9999 -9999 -9999 -9999 -9999 -9999 -9999 -9999 -9999 -9999 -9999 -9999 -9999 -9999 -9999 -9999 -9999 -9999 -9999 -9999 -9999 -9999 -9999 -9999 -9999 -9999 -9999 -9999 -9999 -9999 -9999 -9999 -9999 -9999 -9999 -9999 -9999 -9999 -9999 -9999 -9999 -9999 -9999 -9999 -9999 -9999 -9999 -9999 -9999 -9999 -9999 -9999 -9999 -9999 -9999 -9999 -9999 -9999 -9999 -9999 -9999 -9999 -9999 -9999 -9999 -9999 -9999 -9999 -9999
-9999 -9999 -9999 -9999 -9999 -9999 -9999 -9999 -9999 -9999 -9999 -9999 -9999 -9999 -9999 -9999 -9999 -9999 -9999 -9999 -9999 -9999 -9999 -9999 -9999 -9999 -9999 -9999 -9999 -9999 -9999 -9999 -9999 -9999 596 -9999 667 661 657 750 841 851 853 871 870 876 898 899 854 798 787 756 774 847 897 932 910 861 845 840 890 908 840 784 837 871 796 694 740 778 711 717 681 640 625 651 629 474 380 374 373 348 347 382 485 469 449 465 431 456 424 365 322 311 315 309 304 291 278 271 266 262 246 233 239 271 294 295 290 276 260 270 277 273 270 265 255 241 231 223 214 210 210 196 184 180 180 180 181 179 181 188 186 178 174 172 178 184 187 200 217 257 296 311 309 303 293 280 267 252 246 244 233 233 254 261 250 239 232 227 218 212 215 233 242 246 252 241 213 192 184 180 175 168 163 159 168 199 230 246 248 236 231 247 269 267 264 273 285 279 283 290 291 283 279 278 274 269 264 272 276 272 261 254 243 226 222 219 238 290 320 318 312 301 284 280 273 283 299 293 275 255 244 252 288 293 266 245 236 234 241 270 285 290 298 297 279 275 278 285 282 270 259 263 263 260 257 254 258 261 259 261 268 276 293 312 323 334 351 366 353 344 358 359 344 320 297 293 292 312 315 305 306 321 328 318 306 307 302 280 271 271 264 260 261 275 287 292 292 282 278 280 286 294 300 335 398 434 422 475 518 511 535 595 628 -9999 601 618 653 710 777 847 -9999 -9999 -9999 -9999 -9999 -9999 -9999 -9999 -9999 -9999 -9999 -9999 -9999 -9999 -9999 -9999 -9999 -9999 -9999 -9999 -9999 -9999 -9999 -9999 -9999 -9999 -9999 -9999 -9999 -9999 -9999 -9999 -9999 -9999 -9999 -9999 -9999 -9999 -9999 636 609 602 567 506 483 419 356 325 321 321 330 338 329 302 284 275 266 272 285 296 -9999 -9999 -9999 -9999 -9999 -9999 -9999 -9999 -9999 -9999 -9999 -9999 -9999 -9999 -9999 -9999 -9999 -9999 -9999 -9999 -9999 -9999 -9999 -9999 -9999 -9999 -9999 -9999 -9999 -9999 -9999 -9999 -9999 -9999 -9999 -9999 -9999 -9999 -9999 -9999 -9999 -9999 -9999 -9999 -9999 -9999 -9999 -9999 -9999 -9999 -9999 -9999 -9999 -9999 -9999 -9999 -9999 -9999 -9999 -9999 -9999 -9999 -9999 -9999 -9999 -9999 -9999 -9999 -9999 -9999 -9999 -9999 -9999 -9999 -9999 -9999 -9999 -9999 -9999 -9999 -9999 -9999 -9999 -9999 -9999 -9999 -9999 -9999 -9999 -9999 -9999 -9999 -9999 -9999 -9999 -9999 -9999 -9999 -9999 -9999 -9999 -9999 -9999 -9999 -9999 -9999 -9999 -9999 -9999 -9999 -9999 -9999 -9999 -9999 -9999 -9999 -9999 -9999 -9999 -9999 -9999 -9999 -9999 -9999 -9999 -9999 -9999
-9999 -9999 -9999 -9999 -9999 -9999 -9999 -9999 -9999 -9999 -9999 -9999 -9999 -9999 -9999 -9999 -9999 -9999 -9999 -9999 -9999 -9999 -9999 -9999 -9999 -9999 -9999 -9999 -9999 -9999 -9999 -9999 688 676 681 652 601 599 658 782 865 840 814 807 812 853 869 870 864 825 763 713 767 862 853 860 900 894 849 799 820 811 740 717 774 808 754 656 667 704 663 636 591 542 537 542 524 427 450 493 496 451 437 474 526 531 568 546 463 452 422 389 363 347 340 334 306 277 266 266 266 259 242 239 233 228 233 241 264 277 264 251 253 250 246 242 240 237 232 223 214 204 190 184 183 185 187 183 180 180 184 184 182 183 188 185 194 202 212 231 249 270 309 319 313 304 294 284 272 262 259 248 230 243 262 262 250 242 236 225 217 215 211 214 224 241 259 252 223 196 177 169 166 164 162 160 162 180 208 225 235 241 228 226 242 245 260 280 288 281 266 272 284 287 279 275 277 272 263 275 278 273 267 263 240 232 229 218 216 227 243 251 248 245 240 237 237 242 261 276 270 256 245 235 239 242 232 225 223 228 228 240 264 272 281 288 275 259 255 271 282 273 262 260 257 259 261 254 252 254 254 256 259 265 277 285 290 293 300 313 324 332 353 380 385 349 302 286 292 315 313 299 301 311 314 297 285 286 284 268 262 258 258 265 272 274 282 289 287 283 283 288 293 298 300 320 371 390 415 464 519 520 531 588 593 611 643 667 703 754 839 899 -9999 -9999 -9999 -9999 -9999 -9999 -9999 -9999 -9999 -9999 -9999 -9999 -9999 -9999 -9999 -9999 -9999 -9999 -9999 -9999 -9999 -9999 -9999 -9999 -9999 -9999 -9999 -9999 -9999 -9999 -9999 -9999 -9999 -9999 -9999 -9999 -9999 -9999 -9999 705 681 653 568 524 514 486 434 370 338 335 337 345 337 310 304 299 285 289 301 304 -9999 -9999 -9999 -9999 -9999 -9999 -9999 -9999 -9999 -9999 -9999 -9999 -9999 -9999 -9999 -9999 -9999 -9999 -9999 -9999 -9999 -9999 -9999 -9999 -9999 -9999 -9999 -9999 -9999 -9999 -9999 -9999 -9999 -9999 -9999 -9999 -9999 -9999 -9999 -9999 -9999 -9999 -9999 -9999 -9999 -9999 -9999 -9999 -9999 -9999 -9999 -9999 -9999 -9999 -9999 -9999 -9999 -9999 -9999 -9999 -9999 -9999 -9999 -9999 -9999 -9999 -9999 -9999 -9999 -9999 -9999 -9999 -9999 -9999 -9999 -9999 -9999 -9999 -9999 -9999 -9999 -9999 -9999 -9999 -9999 -9999 -9999 -9999 -9999 -9999 -9999 -9999 -9999 -9999 -9999 -9999 -9999 -9999 -9999 -9999 -9999 -9999 -9999 -9999 -9999 -9999 -9999 -9999 -9999 -9999 -9999 -9999 -9999 -9999 -9999 -9999 -9999 -9999 -9999 -9999 -9999 -9999 -9999 -9999 -9999 -9999 -9999
-9999 -9999 -9999 -9999 -9999 -9999 -9999 -9999 -9999 -9999 -9999 -9999 -9999 -9999 -9999 -9999 -9999 -9999 -9999 -9999 -9999 -9999 -9999 -9999 -9999 -9999 -9999 -9999 -9999 -9999 -9999 -9999 730 707 689 660 592 575 663 770 838 811 779 762 777 802 808 814 841 832 791 709 689 739 766 801 871 919 932 869 762 696 651 652 676 692 685 605 571 567 549 526 513 473 470 431 389 420 557 646 624 546 563 558 593 603 557 498 467 455 434 418 398 386 373 363 329 282 268 272 275 270 262 251 239 226 221 217 232 258 256 227 210 208 217 225 231 229 222 209 196 188 186 190 195 195 201 203 201 206 213 213 203 196 200 207 217 234 256 277 285 309 325 323 316 306 296 285 274 265 256 249 240 250 260 257 248 245 240 229 221 217 214 220 235 250 262 243 215 195 177 168 167 165 163 161 163 170 183 196 209 221 224 214 214 223 239 252 255 257 259 270 280 279 275 267 263 265 260 267 272 270 265 259 239 245 241 223 213 210 212 217 222 220 220 223 227 232 239 248 261 268 260 241 230 227 221 214 215 222 222 234 255 260 271 271 262 249 248 259 276 278 269 256 251 257 263 259 252 250 250 251 255 263 272 278 282 283 288 297 304 301 306 325 355 368 321 284 282 299 308 300 299 299 298 283 274 271 271 263 256 256 261 265 267 262 268 278 278 278 285 290 294 296 297 309 337 360 397 431 471 505 524 556 575 639 691 687 717 783 893 -9999 -9999 -9999 -9999 -9999 -9999 -9999 -9999 -9999 -9999 -9999 -9999 -9999 -9999 -9999 -9999 -9999 -9999 -9999 -9999 -9999 -9999 -9999 -9999 -9999 -9999 -9999 -9999 -9999 -9999 -9999 -9999 -9999 -9999 -9999 -9999 -9999 -9999 -9999 -9999 -9999 744 659 563 562 566 576 511 422 370 353 351 344 332 310 308 316 306 296 296 303 317 326 -9999 -9999 -9999 -9999 -9999 -9999 -9999 -9999 -9999 -9999 -9999 -9999 -9999 -9999 -9999 -9999 -9999 -9999 -9999 -9999 -9999 -9999 -9999 -9999 -9999 -9999 -9999 -9999 -9999 -9999 -9999 -9999 -9999 -9999 -9999 -9999 -9999 -9999 -9999 -9999 -9999 -9999 -9999 -9999 -9999 -9999 -9999 -9999 -9999 -9999 -9999 -9999 -9999 -9999 -9999 -9999 -9999 -9999 -9999 -9999 -9999 -9999 -9999 -9999 -9999 -9999 -9999 -9999 -9999 -9999 -9999 -9999 -9999 -9999 -9999 -9999 -9999 -9999 -9999 -9999 -9999 -9999 -9999 -9999 -9999 -9999 -9999 -9999 -9999 -9999 -9999 -9999 -9999 -9999 -9999 -9999 -9999 -9999 -9999 -9999 -9999 -9999 -9999 -9999 -9999 -9999 -9999 -9999 -9999 -9999 -9999 -9999 -9999 -9999 -9999 -9999 -9999 -9999 -9999 -9999 -9999 -9999 -9999 -9999 -9999
-9999 -9999 -9999 -9999 -9999 -9999 -9999 -9999 555 559 581 601 615 606 -9999 -9999 -9999 -9999 -9999 -9999 -9999 -9999 -9999 -9999 -9999 -9999 -9999 -9999 -9999 696 733 769 769 721 671 627 596 564 634 736 775 748 713 693 711 726 720 737 763 751 724 681 633 639 673 723 792 864 894 888 864 725 604 602 591 561 553 528 490 478 477 478 457 420 388 385 445 492 582 702 685 602 630 621 607 572 535 540 542 534 531 503 458 414 363 347 340 317 301 297 292 286 281 273 255 236 229 219 219 225 217 207 202 201 201 205 210 206 200 197 192 191 189 193 202 215 221 224 227 231 234 234 219 216 227 242 263 288 305 306 310 325 326 322 318 311 301 289 278 270 263 257 253 256 257 251 246 243 238 229 222 223 223 228 237 250 258 237 212 189 175 169 169 165 163 162 165 176 176 180 191 202 206 205 208 225 232 238 249 269 283 284 279 270 261 258 251 244 245 260 266 263 261 252 232 244 249 231 218 213 210 212 217 219 220 223 229 238 248 256 263 270 268 247 232 227 219 213 215 219 221 232 250 252 250 241 243 248 260 269 269 276 273 263 252 250 257 259 255 249 247 246 248 257 265 274 277 277 285 292 291 292 291 294 304 325 323 291 274 281 286 288 285 279 290 283 281 277 267 260 256 253 252 254 256 258 263 268 270 271 274 277 283 288 296 305 314 348 387 414 447 488 516 541 582 636 660 658 685 764 905 991 -9999 -9999 -9999 -9999 -9999 -9999 -9999 -9999 -9999 -9999 -9999 -9999 -9999 -9999 -9999 -9999 -9999 -9999 -9999 -9999 -9999 -9999 -9999 -9999 -9999 -9999 -9999 -9999 -9999 -9999 -9999 -9999 -9999 -9999 -9999 -9999 -9999 -9999 -9999 -9999 730 652 597 613 624 641 572 472 406 373 381 368 344 326 317 323 313 309 308 319 339 350 354 -9999 -9999 -9999 -9999 -9999 -9999 358 -9999 -9999 -9999 -9999 -9999 -9999 -9999 -9999 -9999 -9999 -9999 -9999 -9999 -9999 -9999 -9999 -9999 -9999 -9999 -9999 -9999 -9999 -9999 -9999 236 240 -9999 -9999 -9999 -9999 -9999 -9999 -9999 -9999 -9999 -9999 -9999 -9999 -9999 -9999 -9999 -9999 -9999 -9999 -9999 -9999 -9999 -9999 -9999 -9999 -9999 -9999 -9999 -9999 -9999 -9999 -9999 -9999 -9999 -9999 -9999 -9999 -9999 -9999 -9999 -9999 -9999 -9999 -9999 -9999 -9999 -9999 -9999 -9999 -9999 -9999 -9999 -9999 -9999 -9999 -9999 -9999 -9999 -9999 -9999 -9999 -9999 -9999 -9999 -9999 -9999 -9999 -9999 -9999 -9999 -9999 -9999 -9999 -9999 -9999 -9999 -9999 -9999 -9999 -9999 -9999 -9999 -9999 -9999 -9999 -9999 -9999 -9999 -9999 -9999 -9999 -9999
-9999 -9999 -9999 -9999 -9999 -9999 -9999 -9999 -9999 -9999 585 592 604 594 572 -9999 -9999 -9999 -9999 -9999 -9999 -9999 -9999 -9999 -9999 -9999 -9999 -9999 -9999 720 726 749 750 721 678 675 672 592 601 670 686 661 631 620 636 650 655 661 663 650 629 617 597 583 604 666 713 748 767 769 771 688 604 563 500 456 452 456 449 443 452 482 491 421 393 496 617 657 629 672 690 643 668 669 642 624 610 650 641 595 529 464 405 347 307 304 317 322 318 316 313 306 296 286 271 255 243 231 222 214 211 210 214 213 202 199 195 192 192 191 198 199 198 211 226 234 237 242 242 241 234 227 229 248 275 304 323 324 321 334 344 341 334 328 320 310 298 285 278 271 263 260 259 254 249 244 240 242 238 231 229 229 229 232 243 252 243 218 201 182 173 169 166 164 163 162 160 163 178 186 182 185 198 219 236 247 250 253 257 261 266 266 264 263 260 250 247 239 239 251 259 257 250 242 221 229 240 232 222 217 212 211 215 219 222 226 236 249 256 258 264 268 260 243 231 224 218 212 215 217 228 236 241 241 234 238 254 264 277 293 282 272 271 268 255 248 252 254 258 253 246 247 249 253 261 276 278 274 278 281 278 284 284 280 278 285 302 306 285 269 265 273 275 284 288 274 271 269 259 256 261 264 260 258 259 264 270 271 270 268 271 275 285 302 321 332 332 348 379 401 428 465 499 532 577 613 642 672 693 748 871 946 964 -9999 -9999 -9999 -9999 -9999 -9999 -9999 -9999 -9999 -9999 -9999 -9999 -9999 -9999 -9999 -9999 -9999 -9999 -9999 -9999 -9999 -9999 -9999 -9999 -9999 -9999 -9999 -9999 -9999 -9999 -9999 -9999 -9999 -9999 -9999 -9999 -9999 -9999 -9999 691 644 662 702 695 657 577 486 426 390 381 371 358 349 333 325 319 319 318 330 358 389 389 364 363 -9999 386 369 359 -9999 -9999 -9999 -9999 -9999 -9999 -9999 -9999 -9999 -9999 -9999 -9999 -9999 -9999 -9999 -9999 -9999 -9999 -9999 -9999 -9999 -9999 -9999 -9999 -9999 226 226 -9999 -9999 -9999 -9999 -9999 -9999 -9999 -9999 -9999 -9999 -9999 -9999 -9999 -9999 -9999 -9999 -9999 -9999 -9999 -9999 -9999 -9999 -9999 -9999 -9999 -9999 -9999 -9999 -9999 -9999 -9999 -9999 -9999 -9999 -9999 -9999 -9999 -9999 -9999 -9999 -9999 -9999 -9999 -9999 -9999 -9999 -9999 -9999 -9999 -9999 -9999 -9999 -9999 -9999 -9999 -9999 -9999 -9999 -9999 -9999 -9999 -9999 -9999 -9999 -9999 -9999 -9999 -9999 -9999 -9999 -9999 -9999 -9999 -9999 -9999 -9999 -9999 -9999 -9999 -9999 -9999 -9999 -9999 -9999 -9999 -9999 -9999 -9999 -9999 -9999 -9999
-9999 -9999 -9999 -9999 -9999 -9999 -9999 -9999 -9999 574 575 583 595 594 593 -9999 -9999 -9999 -9999 -9999 -9999 -9999 -9999 -9999 -9999 -9999 -9999 -9999 -9999 731 716 731 738 703 677 672 663 590 566 592 606 597 588 603 618 629 643 656 657 644 639 653 643 602 565 600 630 652 656 635 588 538 503 469 440 425 419 420 425 427 441 464 471 410 422 563 671 705 696 702 703 671 714 722 710 688 657 636 577 509 438 375 331 304 291 284 280 279 280 291 301 305 299 277 254 247 248 252 253 240 240 247 251 237 209 195 196 197 197 194 200 209 224 235 236 238 248 261 265 259 245 250 268 290 318 332 330 335 350 358 352 341 331 318 298 281 271 266 261 263 262 255 247 242 235 228 226 230 230 233 232 231 232 235 246 251 229 199 183 175 169 167 165 163 162 162 160 159 172 201 200 187 190 204 220 240 253 257 254 249 244 242 236 235 240 240 231 232 237 245 253 250 238 226 211 214 227 228 220 214 211 212 214 218 223 232 246 256 262 266 269 270 262 255 248 237 222 213 214 217 223 222 221 224 234 255 266 276 286 299 290 272 263 260 254 250 255 253 254 250 246 253 254 254 261 270 272 269 270 273 278 281 285 283 276 271 284 296 286 267 260 264 264 274 277 266 260 252 250 256 260 266 269 270 271 269 275 286 286 279 282 293 301 310 326 334 332 346 375 399 413 444 483 520 563 601 654 698 713 737 818 905 924 -9999 -9999 770 -9999 -9999 -9999 -9999 -9999 -9999 -9999 -9999 -9999 -9999 -9999 -9999 -9999 -9999 -9999 -9999 -9999 -9999 -9999 -9999 -9999 -9999 -9999 -9999 -9999 -9999 -9999 -9999 -9999 -9999 -9999 -9999 -9999 -9999 -9999 -9999 -9999 700 704 688 659 613 551 497 454 415 396 381 393 388 349 329 328 334 337 371 415 434 416 385 379 382 393 377 342 319 -9999 -9999 -9999 -9999 -9999 -9999 -9999 -9999 -9999 -9999 -9999 -9999 -9999 -9999 -9999 -9999 -9999 -9999 -9999 -9999 -9999 -9999 -9999 -9999 220 218 215 209 -9999 -9999 -9999 -9999 -9999 -9999 -9999 -9999 -9999 -9999 -9999 -9999 -9999 -9999 -9999 -9999 -9999 -9999 -9999 -9999 -9999 -9999 -9999 -9999 -9999 -9999 -9999 -9999 -9999 -9999 -9999 -9999 -9999 -9999 -9999 -9999 -9999 -9999 -9999 -9999 -9999 -9999 -9999 -9999 -9999 -9999 -9999 -9999 -9999 -9999 -9999 -9999 -9999 -9999 -9999 -9999 -9999 -9999 -9999 -9999 -9999 -9999 -9999 -9999 -9999 -9999 -9999 -9999 -9999 -9999 -9999 -9999 -9999 -9999 -9999 -9999 -9999 -9999 -9999 -9999 -9999 -9999 -9999 -9999 -9999 -9999 -9999 -9999 -9999
-9999 -9999 -9999 -9999 -9999 -9999 -9999 -9999 -9999 -9999 594 588 588 600 616 -9999 -9999 -9999 -9999 -9999 -9999 -9999 -9999 -9999 -9999 -9999 -9999 -9999 -9999 688 698 730 719 685 660 650 622 572 566 594 590 567 587 609 626 645 667 671 666 664 666 661 648 607 566 590 604 590 580 551 505 474 462 454 447 436 420 408 407 408 408 409 404 378 415 480 553 596 645 701 712 688 673 677 683 663 609 538 485 444 392 349 322 305 296 288 286 284 276 268 264 271 272 255 251 266 278 279 275 269 267 267 259 243 218 202 211 220 216 213 220 226 232 239 245 258 275 283 284 285 270 275 295 316 333 339 349 360 364 358 349 339 328 316 303 294 281 264 249 241 234 231 229 224 218 211 207 212 219 226 227 230 233 233 223 218 210 190 176 169 165 164 163 162 161 160 159 159 161 187 213 202 185 189 204 217 228 240 247 244 231 224 226 229 234 240 245 251 254 250 248 245 238 225 207 211 222 226 221 213 213 218 216 217 222 234 249 255 260 266 270 265 251 245 248 244 223 210 213 222 220 216 221 233 241 253 262 267 270 285 287 275 264 257 250 255 262 255 249 244 243 253 255 252 255 261 265 264 265 273 283 286 289 294 291 276 275 282 279 266 259 262 276 276 270 261 254 247 250 259 264 266 268 271 273 270 274 282 283 282 286 292 297 304 305 303 311 335 365 396 414 441 481 518 548 601 647 672 712 721 739 818 862 961 956 836 748 -9999 -9999 -9999 -9999 -9999 -9999 -9999 -9999 -9999 -9999 -9999 -9999 -9999 -9999 -9999 -9999 -9999 -9999 -9999 -9999 -9999 -9999 -9999 -9999 -9999 -9999 -9999 -9999 -9999 -9999 -9999 -9999 -9999 -9999 -9999 -9999 -9999 -9999 692 723 729 664 563 505 456 417 393 397 405 370 346 353 356 371 431 500 500 446 414 419 413 395 356 333 337 -9999 -9999 -9999 -9999 -9999 -9999 -9999 -9999 -9999 -9999 -9999 -9999 -9999 -9999 -9999 -9999 -9999 -9999 -9999 -9999 -9999 -9999 -9999 235 232 232 227 213 -9999 -9999 -9999 -9999 -9999 -9999 -9999 -9999 -9999 -9999 -9999 -9999 -9999 -9999 -9999 -9999 -9999 -9999 -9999 -9999 -9999 -9999 -9999 -9999 -9999 -9999 -9999 -9999 -9999 -9999 -9999 -9999 -9999 -9999 -9999 -9999 -9999 -9999 -9999 -9999 -9999 -9999 -9999 -9999 -9999 -9999 -9999 -9999 -9999 -9999 -9999 -9999 -9999 -9999 -9999 -9999 -9999 -9999 -9999 -9999 -9999 -9999 -9999 -9999 -9999 -9999 -9999 -9999 -9999 -9999 -9999 -9999 -9999 -9999 -9999 -9999 -9999 -9999 -9999 -9999 -9999 -9999 -9999 -9999 -9999 -9999 -9999 -9999 -9999
-9999 -9999 -9999 -9999 -9999 -9999 -9999 -9999 -9999 -9999 601 608 606 618 641 -9999 -9999 -9999 -9999 -9999 -9999 -9999 -9999 -9999 -9999 -9999 -9999 641 644 649 667 702 684 648 642 645 624 592 555 561 564 569 608 636 655 671 682 669 653 649 655 644 635 617 558 555 571 552 523 505 490 479 473 472 458 438 427 419 413 426 442 427 391 401 473 518 533 577 644 698 686 660 622 582 564 548 519 478 443 411 378 349 327 314 306 302 299 295 291 285 272 259 249 252 285 320 324 313 299 287 275 264 256 239 221 217 224 235 241 255 264 262 264 265 267 278 296 311 318 313 286 289 318 338 350 362 369 367 361 352 339 327 319 310 296 284 275 266 259 249 236 225 218 212 207 204 203 207 213 219 225 228 226 221 202 193 190 176 168 164 164 163 162 162 161 160 160 159 159 164 189 203 189 181 189 200 210 219 227 227 216 228 252 263 260 255 253 254 252 246 240 240 237 221 210 216 224 222 217 213 210 211 212 213 219 236 246 252 261 268 269 253 238 228 225 230 224 210 208 211 211 215 223 225 226 233 239 246 255 271 282 271 262 260 253 248 246 243 246 243 241 248 254 250 250 257 265 263 264 276 283 282 286 283 279 271 270 276 277 272 265 264 279 272 264 259 250 246 252 260 264 265 266 268 273 278 282 279 272 278 281 280 279 278 278 282 301 325 346 376 401 433 472 498 526 587 620 649 723 739 689 718 791 942 1008 914 787 722 -9999 -9999 -9999 -9999 -9999 -9999 -9999 -9999 -9999 -9999 -9999 -9999 -9999 -9999 -9999 -9999 -9999 -9999 -9999 -9999 -9999 -9999 -9999 -9999 -9999 -9999 -9999 -9999 -9999 -9999 -9999 -9999 -9999 -9999 -9999 -9999 -9999 -9999 -9999 842 756 627 546 494 444 411 402 408 400 393 392 388 419 473 545 550 483 442 418 388 360 351 352 -9999 -9999 -9999 -9999 -9999 -9999 -9999 -9999 -9999 -9999 -9999 -9999 -9999 -9999 -9999 -9999 -9999 -9999 -9999 -9999 -9999 -9999 -9999 257 248 242 240 226 -9999 -9999 -9999 -9999 -9999 -9999 -9999 -9999 -9999 -9999 -9999 -9999 -9999 -9999 -9999 -9999 -9999 -9999 -9999 -9999 -9999 -9999 -9999 -9999 -9999 -9999 -9999 -9999 -9999 -9999 -9999 -9999 -9999 -9999 -9999 -9999 -9999 -9999 -9999 -9999 -9999 -9999 -9999 -9999 -9999 -9999 -9999 -9999 -9999 -9999 -9999 -9999 -9999 -9999 -9999 -9999 -9999 -9999 -9999 -9999 -9999 -9999 -9999 -9999 -9999 -9999 -9999 -9999 -9999 -9999 -9999 -9999 -9999 -9999 -9999 -9999 -9999 -9999 -9999 -9999 -9999 -9999 -9999 -9999 -9999 -9999 -9999 -9999 -9999 -9999
-9999 -9999 -9999 -9999 -9999 -9999 -9999 -9999 -9999 -9999 614 625 633 633 647 -9999 -9999 -9999 -9999 -9999 -9999 -9999 -9999 -9999 -9999 -9999 639 622 616 620 634 661 657 631 620 631 638 620 602 564 585 614 621 647 678 688 671 651 631 621 634 632 607 580 540 496 493 501 494 477 470 475 474 478 484 481 466 447 439 451 445 426 387 426 468 490 534 614 676 696 641 599 589 537 494 479 477 448 405 376 355 339 332 331 323 311 305 301 297 291 278 265 253 264 306 333 328 311 294 280 272 272 253 231 231 229 231 247 265 280 286 295 294 284 278 293 313 331 331 306 295 327 355 363 375 380 371 357 346 334 320 305 293 296 296 291 283 270 259 251 246 244 233 220 210 204 200 200 202 205 209 205 203 204 199 189 173 167 166 165 164 164 164 164 163 160 160 159 159 160 170 190 193 184 179 183 195 204 207 211 224 244 264 281 285 276 263 258 252 243 233 230 230 213 205 214 224 219 212 213 211 210 211 214 221 238 253 261 264 265 257 240 227 219 216 214 208 208 214 211 210 211 213 214 219 232 241 249 251 262 280 271 259 261 260 252 246 243 239 240 245 249 251 247 245 250 260 263 261 269 276 281 288 278 267 265 275 287 291 295 292 276 266 261 259 253 245 243 248 254 259 261 264 265 268 277 283 278 266 265 269 266 265 268 272 276 291 311 332 368 396 421 457 480 495 529 576 642 688 698 667 700 782 927 1013 994 869 754 -9999 -9999 -9999 -9999 -9999 -9999 -9999 -9999 -9999 -9999 -9999 -9999 -9999 -9999 -9999 -9999 -9999 -9999 -9999 -9999 -9999 -9999 -9999 -9999 -9999 -9999 -9999 -9999 -9999 -9999 -9999 -9999 -9999 -9999 -9999 -9999 -9999 -9999 -9999 -9999 770 696 615 535 479 439 443 478 482 467 479 493 553 595 608 577 488 430 390 365 368 376 377 -9999 -9999 413 401 -9999 -9999 -9999 -9999 -9999 -9999 -9999 -9999 -9999 -9999 -9999 -9999 -9999 293 -9999 -9999 -9999 -9999 274 275 264 250 238 224 -9999 -9999 -9999 -9999 -9999 -9999 -9999 -9999 -9999 -9999 -9999 -9999 -9999 -9999 -9999 -9999 -9999 -9999 -9999 -9999 -9999 -9999 -9999 -9999 -9999 -9999 -9999 -9999 -9999 -9999 -9999 -9999 -9999 -9999 -9999 -9999 -9999 -9999 -9999 -9999 -9999 -9999 -9999 -9999 -9999 -9999 -9999 -9999 -9999 -9999 -9999 -9999 -9999 -9999 -9999 -9999 -9999 -9999 -9999 -9999 -9999 -9999 -9999 -9999 -9999 -9999 -9999 -9999 -9999 -9999 -9999 -9999 -9999 -9999 -9999 -9999 -9999 -9999 -9999 -9999 -9999 -9999 -9999 -9999 -9999 -9999 -9999 -9999 -9999 -9999
-9999 -9999 -9999 -9999 -9999 -9999 -9999 -9999 609 639 640 646 658 656 644 607 579 549 559 -9999 -9999 -9999 -9999 -9999 -9999 -9999 636 622 594 604 615 628 634 621 615 646 659 655 610 560 593 601 610 658 701 708 692 667 636 608 597 584 541 518 490 465 449 453 472 479 469 461 459 454 468 469 456 451 451 444 405 384 391 451 505 552 596 633 643 671 637 552 516 492 463 437 420 403 381 366 359 366 369 357 324 301 296 296 292 283 272 262 256 271 318 331 315 296 282 279 284 266 241 241 236 241 255 279 295 309 319 319 310 295 306 345 354 349 325 311 327 363 377 387 394 387 371 348 326 309 298 288 275 272 268 263 258 250 245 242 239 235 228 222 216 210 205 201 197 193 190 187 202 220 222 193 171 168 168 168 168 168 169 168 165 162 161 161 160 160 162 176 199 200 186 179 188 205 215 224 237 249 259 267 275 273 264 260 256 251 244 226 216 205 210 225 225 216 209 209 209 210 214 221 231 242 251 254 247 232 223 224 223 213 207 203 199 202 210 215 216 212 213 217 217 219 227 242 251 255 271 273 259 256 265 268 260 250 239 238 245 255 252 244 244 246 251 263 261 261 267 272 271 263 260 268 285 307 314 305 292 283 264 252 248 244 242 242 245 254 255 254 261 265 263 264 264 262 259 257 258 260 263 267 277 282 286 297 318 353 390 416 445 466 480 512 579 643 657 656 657 723 817 890 940 1003 956 819 728 -9999 -9999 -9999 -9999 -9999 -9999 -9999 -9999 -9999 -9999 -9999 -9999 -9999 -9999 -9999 -9999 -9999 -9999 -9999 -9999 -9999 -9999 -9999 -9999 -9999 -9999 -9999 -9999 -9999 -9999 -9999 -9999 -9999 -9999 -9999 -9999 -9999 -9999 -9999 813 731 631 558 536 488 480 565 627 628 660 680 697 675 577 490 430 408 390 382 400 424 432 -9999 -9999 422 411 406 450 -9999 -9999 -9999 -9999 388 390 380 381 367 343 351 337 308 -9999 333 315 292 285 273 264 251 230 -9999 -9999 -9999 -9999 -9999 -9999 -9999 -9999 -9999 -9999 -9999 -9999 -9999 -9999 -9999 -9999 -9999 -9999 -9999 -9999 -9999 -9999 -9999 -9999 -9999 -9999 -9999 -9999 -9999 -9999 -9999 -9999 -9999 -9999 -9999 -9999 -9999 -9999 -9999 -9999 -9999 -9999 -9999 -9999 -9999 -9999 -9999 -9999 -9999 -9999 -9999 -9999 -9999 -9999 -9999 -9999 -9999 -9999 -9999 -9999 -9999 -9999 -9999 -9999 -9999 -9999 -9999 -9999 -9999 -9999 -9999 -9999 -9999 -9999 -9999 -9999 -9999 -9999 -9999 -9999 -9999 -9999 -9999 -9999 -9999 -9999 -9999 -9999 -9999 -9999
-9999 -9999 -9999 -9999 -9999 -9999 -9999 592 605 642 653 666 672 644 602 580 554 557 566 -9999 -9999 -9999 -9999 -9999 -9999 -9999 604 602 580 575 601 613 622 614 638 673 680 667 636 564 562 569 623 678 709 698 688 675 620 585 540 496 479 482 474 451 435 433 460 491 483 450 429 425 426 421 428 443 455 470 455 407 439 488 527 565 590 597 613 677 654 579 592 572 519 481 450 423 410 410 417 414 394 373 343 317 299 292 289 280 269 266 266 268 299 311 299 284 281 291 283 253 238 253 257 276 297 323 338 348 368 369 340 310 363 407 406 378 355 350 323 347 390 411 409 395 369 342 328 318 307 293 283 287 284 277 269 259 247 238 231 224 217 212 211 209 205 205 203 196 190 192 203 218 216 186 170 168 170 171 174 177 176 172 168 166 164 164 162 160 160 163 177 187 183 180 181 184 192 210 227 239 244 249 260 268 267 251 241 237 235 213 199 206 215 224 222 213 209 206 206 214 227 241 249 251 238 221 208 201 201 206 209 205 199 197 197 201 211 219 215 212 216 223 221 219 224 238 247 248 263 273 261 251 252 262 263 256 246 237 235 242 248 242 241 242 244 254 258 261 272 266 257 256 264 276 287 303 306 298 287 270 258 247 241 240 243 247 251 252 250 248 250 259 262 258 254 254 255 255 256 259 265 273 285 293 293 297 307 336 371 402 424 442 481 525 572 636 646 626 631 668 761 848 890 984 997 878 750 691 -9999 -9999 -9999 -9999 -9999 -9999 -9999 -9999 -9999 -9999 -9999 -9999 -9999 -9999 -9999 -9999 -9999 -9999 -9999 -9999 -9999 -9999 -9999 -9999 -9999 -9999 -9999 -9999 -9999 -9999 -9999 -9999 -9999 -9999 -9999 -9999 -9999 -9999 780 687 637 669 648 546 477 518 653 781 856 806 681 606 524 443 418 416 413 426 455 500 486 439 430 435 426 434 520 657 -9999 624 550 454 409 390 372 354 344 348 337 317 315 315 312 302 288 281 278 260 240 -9999 -9999 -9999 -9999 -9999 -9999 -9999 -9999 -9999 -9999 -9999 -9999 -9999 -9999 -9999 -9999 -9999 -9999 -9999 -9999 -9999 -9999 -9999 -9999 -9999 -9999 -9999 -9999 -9999 -9999 -9999 -9999 -9999 -9999 -9999 -9999 -9999 -9999 -9999 -9999 -9999 -9999 -9999 -9999 -9999 -9999 -9999 -9999 -9999 -9999 -9999 -9999 -9999 -9999 -9999 -9999 -9999 -9999 -9999 -9999 -9999 -9999 -9999 -9999 -9999 -9999 -9999 -9999 -9999 -9999 -9999 -9999 -9999 -9999 -9999 -9999 -9999 -9999 -9999 -9999 -9999 -9999 -9999 -9999 -9999 -9999 -9999 -9999 -9999 -9999
-9999 -9999 -9999 -9999 -9999 -9999 -9999 -9999 609 641 664 668 653 620 613 629 591 606 -9999 -9999 -9999 -9999 -9999 -9999 -9999 -9999 568 574 566 543 557 595 622 604 625 656 675 668 657 587 520 556 641 688 686 657 640 614 566 522 489 463 454 462 451 434 430 429 430 442 440 426 420 414 402 417 443 461 473 504 491 421 437 464 481 514 539 570 608 664 643 586 614 643 612 560 512 483 455 446 442 415 378 353 337 319 305 293 282 275 276 280 276 272 290 296 292 298 302 291 273 257 253 266 273 309 344 366 381 410 433 414 361 319 353 415 431 399 365 354 328 349 394 425 427 414 388 357 333 315 300 295 299 302 296 288 289 285 271 263 255 244 231 220 216 210 203 198 195 195 206 225 233 231 214 182 169 169 173 183 202 196 177 169 167 167 167 165 164 161 161 162 165 168 170 181 197 192 184 189 204 224 238 246 256 261 259 242 217 206 205 198 201 209 216 220 222 224 223 217 210 217 236 246 247 243 221 206 200 198 195 196 199 197 196 196 200 202 207 213 213 210 212 215 215 218 222 229 235 238 253 270 265 251 247 259 267 266 256 244 235 240 245 239 237 238 238 244 253 256 263 258 251 254 264 279 298 314 307 290 274 262 251 242 241 244 248 252 256 259 256 252 250 256 270 270 259 253 253 253 255 259 268 279 287 292 307 315 312 322 344 374 401 416 445 491 546 605 612 593 606 660 760 834 847 903 937 905 793 706 -9999 -9999 -9999 -9999 -9999 -9999 -9999 -9999 -9999 -9999 -9999 -9999 -9999 -9999 -9999 -9999 -9999 -9999 -9999 -9999 -9999 -9999 -9999 -9999 -9999 -9999 -9999 -9999 -9999 -9999 -9999 -9999 -9999 -9999 -9999 -9999 -9999 -9999 753 715 761 788 684 586 518 507 606 772 876 848 748 613 484 432 459 470 512 543 549 524 498 487 480 471 456 449 528 689 -9999 637 567 468 411 383 366 355 349 351 347 324 312 305 298 296 295 284 277 263 253 268 -9999 -9999 -9999 -9999 -9999 -9999 -9999 -9999 -9999 -9999 -9999 -9999 -9999 -9999 -9999 -9999 -9999 -9999 -9999 -9999 -9999 -9999 -9999 -9999 -9999 -9999 -9999 -9999 -9999 -9999 -9999 -9999 -9999 -9999 -9999 -9999 -9999 -9999 -9999 -9999 -9999 -9999 -9999 -9999 -9999 -9999 -9999 -9999 -9999 -9999 -9999 -9999 -9999 -9999 -9999 -9999 -9999 -9999 -9999 -9999 -9999 -9999 -9999 -9999 -9999 -9999 -9999 -9999 -9999 -9999 -9999 -9999 -9999 -9999 -9999 -9999 -9999 -9999 -9999 -9999 -9999 -9999 -9999 -9999 -9999 -9999 -9999 -9999 -9999
-9999 -9999 -9999 -9999 -9999 -9999 -9999 -9999 -9999 672 657 654 651 627 660 668 612 596 616 -9999 -9999 -9999 -9999 -9999 557 -9999 535 547 543 524 526 551 610 624 595 604 620 644 637 595 535 563 622 639 623 593 571 546 527 518 498 465 438 433 435 428 421 434 430 412 399 402 412 411 404 426 447 456 444 445 439 438 513 538 530 538 560 596 643 691 659 608 583 606 645 616 548 507 484 480 473 442 402 369 348 337 323 306 292 286 290 291 287 291 299 304 310 321 305 284 284 293 293 300 295 321 363 391 427 438 408 367 336 326 336 369 410 400 377 360 327 355 416 436 427 409 389 358 334 320 317 323 318 300 283 272 267 264 255 250 243 235 235 234 229 220 210 206 205 207 223 252 257 236 207 179 172 176 183 193 212 202 181 171 168 169 170 170 168 165 162 162 165 167 169 171 185 204 195 182 181 196 216 227 236 246 240 213 196 194 199 207 210 212 216 229 239 247 247 232 214 209 220 234 241 235 221 210 203 197 194 195 200 199 196 196 197 198 202 208 211 211 213 216 215 214 217 220 228 237 250 263 261 250 246 258 274 274 267 252 235 238 241 235 236 240 241 246 260 259 254 250 248 252 262 275 284 288 289 282 266 257 249 239 238 243 249 251 250 254 259 263 260 256 263 275 269 259 254 253 256 262 273 290 298 290 291 302 310 313 323 344 374 392 417 463 519 573 576 590 646 696 761 817 788 788 859 936 854 745 690 -9999 -9999 -9999 -9999 -9999 -9999 -9999 -9999 -9999 -9999 -9999 -9999 -9999 -9999 -9999 -9999 -9999 -9999 -9999 -9999 -9999 -9999 -9999 -9999 -9999 -9999 -9999 -9999 -9999 -9999 -9999 -9999 -9999 -9999 -9999 -9999 841 802 807 868 830 761 673 574 549 568 639 727 762 691 555 464 510 572 556 607 645 584 548 592 571 548 553 521 489 527 643 609 530 490 462 448 410 377 369 367 377 364 345 335 320 304 290 286 279 266 254 252 267 274 -9999 -9999 -9999 -9999 -9999 -9999 -9999 -9999 -9999 -9999 -9999 -9999 -9999 -9999 -9999 -9999 -9999 -9999 -9999 -9999 -9999 -9999 -9999 -9999 -9999 -9999 -9999 -9999 -9999 -9999 -9999 -9999 -9999 -9999 -9999 -9999 -9999 -9999 -9999 -9999 -9999 -9999 -9999 -9999 -9999 -9999 -9999 -9999 -9999 -9999 -9999 -9999 -9999 -9999 -9999 -9999 -9999 -9999 -9999 -9999 -9999 -9999 -9999 -9999 -9999 -9999 -9999 -9999 -9999 -9999 -9999 -9999 -9999 -9999 -9999 -9999 -9999 -9999 -9999 -9999 -9999 -9999 -9999 -9999 -9999 -9999 -9999 -9999
-9999 -9999 -9999 -9999 -9999 -9999 -9999 -9999 -9999 -9999 -9999 -9999 651 647 672 687 646 613 641 671 -9999 -9999 -9999 -9999 550 535 520 515 507 503 502 510 552 603 596 576 595 620 628 620 561 531 539 540 542 539 530 520 508 499 482 462 447 426 418 413 411 419 428 419 400 398 412 404 397 406 404 405 403 404 394 424 499 542 556 579 621 670 745 778 717 654 631 619 641 637 582 534 493 457 439 431 415 387 368 354 340 323 312 311 312 312 322 338 342 339 326 303 282 279 288 301 325 326 336 339 340 368 397 394 381 365 354 364 349 350 405 402 401 375 351 381 432 443 434 421 394 367 351 332 317 303 288 281 283 282 276 270 265 259 256 258 261 253 239 228 229 231 224 217 228 254 264 242 207 180 176 186 192 190 189 184 180 176 173 173 176 177 175 172 166 163 165 167 168 169 170 177 182 179 175 177 191 207 216 219 216 199 195 202 208 215 220 226 235 244 247 245 243 231 212 213 225 229 230 220 213 208 203 202 201 202 200 197 194 199 202 202 203 206 215 218 213 219 221 218 218 223 226 232 242 254 252 246 239 244 261 271 260 243 232 236 239 234 234 237 244 252 265 261 250 246 247 255 268 272 274 272 272 270 260 255 247 238 238 240 244 248 248 250 256 265 268 264 263 270 274 267 256 255 263 266 274 299 324 311 295 293 294 297 307 332 353 371 395 434 487 536 531 580 632 662 707 776 753 769 872 967 932 817 727 685 -9999 -9999 -9999 -9999 -9999 -9999 -9999 -9999 -9999 -9999 -9999 -9999 -9999 -9999 -9999 -9999 -9999 -9999 -9999 -9999 -9999 -9999 -9999 -9999 -9999 -9999 -9999 -9999 -9999 -9999 -9999 -9999 -9999 -9999 -9999 -9999 901 938 932 885 798 664 626 648 639 600 590 607 595 507 489 630 724 696 722 710 660 651 653 599 628 643 629 599 568 649 597 558 525 501 508 465 420 392 365 355 369 403 383 340 313 299 284 275 261 260 262 264 273 -9999 -9999 -9999 -9999 -9999 -9999 -9999 -9999 -9999 -9999 -9999 -9999 -9999 -9999 -9999 -9999 -9999 -9999 -9999 -9999 -9999 -9999 -9999 -9999 -9999 -9999 -9999 -9999 -9999 -9999 -9999 -9999 -9999 -9999 -9999 -9999 -9999 -9999 -9999 -9999 -9999 -9999 -9999 -9999 -9999 -9999 -9999 -9999 -9999 -9999 -9999 -9999 -9999 -9999 -9999 -9999 -9999 -9999 -9999 -9999 -9999 -9999 -9999 -9999 -9999 -9999 -9999 -9999 -9999 -9999 -9999 -9999 -9999 -9999 -9999 -9999 -9999 -9999 -9999 -9999 -9999 -9999 -9999 -9999 -9999 -9999 -9999 -9999
-9999 -9999 -9999 -9999 -9999 -9999 -9999 -9999 -9999 -9999 -9999 -9999 651 656 668 681 650 623 654 666 637 -9999 -9999 -9999 534 521 510 499 488 487 490 488 515 571 601 584 571 597 599 573 533 487 480 491 500 507 514 506 479 466 463 454 448 443 438 431 425 413 402 400 389 389 396 418 442 449 436 429 449 474 446 440 477 528 573 606 655 710 772 810 771 727 707 674 648 655 622 571 520 483 454 435 426 408 397 386 376 365 349 340 331 319 326 351 356 340 311 283 287 303 314 318 339 344 354 371 355 356 367 389 394 378 396 409 381 381 409 417 421 381 394 422 449 451 437 415 402 380 336 307 308 312 314 310 303 292 284 277 274 288 298 296 276 247 233 239 246 242 234 225 228 250 265 258 220 184 178 189 195 196 193 191 195 198 190 183 183 187 185 179 172 166 164 164 166 168 168 169 170 172 173 175 178 187 199 206 203 195 191 208 219 226 235 238 234 233 230 227 227 222 207 202 207 211 212 210 207 206 204 200 201 197 193 191 191 192 198 202 204 210 210 215 217 215 217 218 217 219 224 234 253 261 252 242 236 236 240 245 243 234 229 232 233 233 239 241 245 249 255 252 245 244 249 261 268 276 282 281 276 264 254 251 243 237 238 238 243 246 246 248 252 256 261 265 271 276 275 265 255 258 272 279 284 301 336 335 316 305 304 297 297 323 347 361 382 418 461 504 510 562 600 616 651 713 707 765 860 935 959 890 807 728 675 -9999 -9999 -9999 -9999 -9999 -9999 -9999 -9999 -9999 -9999 -9999 -9999 -9999 -9999 -9999 -9999 -9999 -9999 -9999 -9999 -9999 -9999 -9999 -9999 -9999 -9999 -9999 -9999 -9999 -9999 -9999 995 1001 -9999 -9999 -9999 1053 945 805 705 669 687 665 614 548 511 510 505 471 511 646 771 815 819 796 764 746 730 675 736 807 794 692 588 636 616 629 617 560 562 530 491 439 381 369 403 402 363 341 329 308 290 283 275 276 270 274 280 -9999 -9999 -9999 -9999 -9999 -9999 -9999 -9999 -9999 -9999 -9999 -9999 -9999 -9999 -9999 -9999 -9999 -9999 -9999 -9999 -9999 -9999 -9999 -9999 -9999 -9999 -9999 -9999 -9999 -9999 -9999 -9999 -9999 -9999 -9999 -9999 -9999 -9999 -9999 -9999 -9999 -9999 -9999 -9999 -9999 -9999 -9999 -9999 -9999 -9999 -9999 -9999 -9999 -9999 -9999 -9999 -9999 -9999 -9999 -9999 -9999 -9999 -9999 -9999 -9999 -9999 -9999 -9999 -9999 -9999 -9999 -9999 -9999 -9999 -9999 -9999 -9999 -9999 -9999 -9999 -9999 -9999 -9999 -9999 -9999 -9999 -9999 -9999
-9999 -9999 -9999 -9999 -9999 -9999 -9999 -9999 -9999 -9999 -9999 -9999 -9999 639 642 648 646 638 661 683 656 -9999 -9999 -9999 561 527 502 494 484 476 476 477 492 538 593 588 564 584 591 565 535 500 467 474 477 474 477 473 458 450 451 446 437 441 465 476 468 441 407 387 396 434 448 446 515 549 536 568 579 559 510 507 536 563 612 674 726 775 771 792 819 813 774 727 677 655 636 590 550 518 488 460 440 425 422 412 391 373 357 346 333 324 330 343 346 322 291 281 310 343 348 351 357 376 367 371 376 375 397 424 429 425 411 398 381 414 431 439 408 397 442 452 435 425 409 373 348 330 314 329 347 343 332 318 305 297 290 285 293 303 294 277 258 258 264 258 244 229 222 217 215 226 240 233 203 185 181 191 204 207 209 210 216 222 211 198 194 196 192 185 181 174 167 164 164 165 166 166 169 172 174 176 179 191 205 213 202 189 198 216 225 232 232 223 220 216 212 208 206 203 199 197 200 202 203 204 204 203 203 199 198 194 190 190 190 190 192 198 205 212 215 213 215 220 219 218 218 222 227 236 256 267 257 245 238 235 233 232 232 230 229 231 237 242 242 246 253 252 247 243 242 249 257 259 267 289 299 295 283 265 252 245 238 234 236 237 236 239 246 254 258 257 260 265 275 283 287 278 258 256 272 297 307 319 350 357 334 312 307 302 302 318 341 359 380 415 433 451 497 541 566 588 625 680 675 723 809 876 897 898 890 816 729 681 -9999 -9999 -9999 -9999 -9999 -9999 -9999 -9999 -9999 -9999 -9999 -9999 -9999 -9999 -9999 -9999 -9999 -9999 -9999 -9999 -9999 -9999 -9999 -9999 -9999 -9999 -9999 -9999 -9999 -9999 933 942 -9999 -9999 -9999 1056 959 811 685 627 599 574 560 552 532 495 467 460 497 575 665 748 781 776 766 754 769 729 720 806 867 760 639 662 664 719 718 651 645 620 580 508 431 390 395 385 376 367 354 331 305 288 282 282 278 287 287 -9999 -9999 -9999 -9999 -9999 -9999 -9999 -9999 -9999 -9999 -9999 -9999 -9999 -9999 -9999 -9999 -9999 -9999 -9999 -9999 -9999 -9999 -9999 -9999 -9999 -9999 -9999 -9999 -9999 -9999 -9999 -9999 -9999 -9999 -9999 -9999 -9999 -9999 -9999 -9999 -9999 -9999 -9999 -9999 -9999 -9999 -9999 -9999 -9999 -9999 -9999 -9999 -9999 -9999 -9999 -9999 -9999 -9999 -9999 -9999 -9999 -9999 -9999 -9999 -9999 -9999 -9999 -9999 -9999 -9999 -9999 -9999 -9999 -9999 -9999 -9999 -9999 -9999 -9999 -9999 -9999 -9999 -9999 -9999 -9999 -9999 -9999 -9999
-9999 -9999 -9999 -9999 -9999 -9999 -9999 -9999 -9999 -9999 -9999 -9999 -9999 -9999 620 641 668 679 684 700 -9999 -9999 -9999 -9999 550 511 488 484 486 480 470 468 477 515 574 573 580 606 603 578 552 530 492 474 470 448 443 446 443 441 443 445 434 429 450 481 499 469 411 405 452 501 487 453 514 564 579 605 619 585 566 615 647 659 678 747 825 850 829 819 853 846 821 776 712 671 666 618 560 529 505 475 450 432 425 417 404 379 352 339 332 333 346 350 333 303 293 294 315 350 374 379 388 404 392 380 387 409 429 461 483 479 462 448 418 434 449 449 419 445 468 451 419 384 356 340 337 349 370 380 363 345 333 326 321 314 304 295 286 279 276 269 270 285 281 255 240 245 250 238 220 212 208 206 205 223 218 204 217 227 233 242 249 252 235 220 211 204 197 195 189 179 175 171 167 166 166 166 167 170 174 178 184 192 201 205 195 186 189 196 205 217 213 204 208 207 203 200 198 198 195 194 195 198 200 201 201 202 200 198 198 195 192 190 189 189 190 193 197 205 217 219 213 213 223 225 220 220 223 230 242 255 253 243 238 242 241 233 228 227 227 233 250 257 258 263 260 251 242 243 251 266 269 259 266 288 298 290 276 263 252 242 234 232 235 234 233 235 241 255 262 260 257 263 275 281 277 267 254 255 266 299 328 345 375 383 351 319 312 316 313 317 328 348 371 398 412 442 491 508 532 567 601 648 645 680 762 790 776 789 857 889 835 759 703 -9999 -9999 -9999 -9999 -9999 -9999 -9999 -9999 -9999 -9999 -9999 -9999 -9999 -9999 -9999 -9999 -9999 -9999 -9999 -9999 -9999 -9999 -9999 -9999 -9999 823 781 841 894 915 960 996 1025 1048 999 919 813 742 678 633 664 672 638 627 576 513 481 493 529 610 700 750 785 800 781 756 730 756 775 805 789 719 762 782 781 753 713 676 658 640 579 504 431 413 433 437 405 374 340 308 292 287 284 -9999 -9999 -9999 -9999 -9999 -9999 -9999 -9999 -9999 -9999 -9999 -9999 -9999 -9999 -9999 -9999 -9999 -9999 -9999 -9999 -9999 -9999 -9999 -9999 -9999 -9999 -9999 -9999 -9999 -9999 -9999 -9999 -9999 -9999 -9999 -9999 -9999 -9999 -9999 -9999 -9999 -9999 -9999 -9999 -9999 -9999 -9999 -9999 -9999 -9999 -9999 -9999 -9999 -9999 -9999 -9999 -9999 -9999 -9999 -9999 -9999 -9999 -9999 -9999 -9999 -9999 -9999 -9999 -9999 -9999 -9999 -9999 -9999 -9999 -9999 -9999 -9999 -9999 -9999 -9999 -9999 -9999 -9999 -9999 -9999 -9999 -9999 -9999 -9999 -9999 -9999
-9999 -9999 -9999 -9999 -9999 -9999 -9999 -9999 -9999 -9999 -9999 -9999 -9999 -9999 636 636 646 656 674 693 -9999 -9999 -9999 -9999 533 516 494 477 474 475 472 463 465 489 546 568 563 594 595 570 538 510 482 452 438 431 436 430 425 430 446 463 452 433 448 479 513 497 444 452 495 514 481 513 573 592 601 608 618 602 618 678 709 737 777 823 856 867 830 817 838 810 806 799 745 689 691 662 600 547 513 493 472 456 455 457 431 389 363 348 344 348 349 334 307 301 320 324 312 339 367 367 379 401 413 414 407 413 425 436 439 452 466 452 450 464 482 474 457 474 458 419 391 385 384 379 407 425 416 399 382 366 344 327 313 302 295 292 287 295 297 286 270 257 246 247 262 264 257 246 239 239 237 231 221 237 246 226 218 244 261 271 275 269 250 230 217 212 204 195 188 182 179 177 174 174 172 169 168 169 173 179 184 188 191 189 182 180 186 190 191 196 195 196 199 199 197 196 195 194 193 193 196 198 200 200 198 199 197 192 193 195 195 191 189 189 189 190 192 197 209 218 216 212 213 213 213 213 217 223 235 245 243 237 234 237 240 237 230 227 227 234 244 259 269 270 260 250 242 241 251 266 273 259 263 281 287 276 263 255 245 237 233 231 232 232 233 234 237 244 247 250 250 258 261 266 266 258 252 256 259 275 312 359 384 387 362 328 317 319 316 316 324 341 362 378 408 436 464 496 533 562 591 616 619 673 738 747 709 748 818 877 912 830 713 -9999 -9999 -9999 -9999 -9999 -9999 -9999 -9999 -9999 -9999 -9999 -9999 -9999 -9999 -9999 -9999 -9999 -9999 -9999 -9999 -9999 -9999 -9999 -9999 801 741 727 826 842 894 936 937 925 961 923 886 841 758 718 746 787 772 712 679 610 532 495 532 582 657 749 808 839 841 835 813 746 781 775 724 712 732 802 778 734 702 666 604 595 586 562 507 460 428 462 497 467 405 355 324 312 302 292 -9999 -9999 -9999 -9999 -9999 -9999 -9999 -9999 -9999 -9999 -9999 -9999 -9999 -9999 -9999 -9999 -9999 -9999 -9999 -9999 -9999 -9999 -9999 -9999 -9999 -9999 -9999 -9999 -9999 -9999 -9999 -9999 -9999 -9999 -9999 -9999 -9999 -9999 -9999 -9999 -9999 -9999 -9999 -9999 -9999 -9999 -9999 -9999 -9999 -9999 -9999 -9999 -9999 -9999 -9999 -9999 -9999 -9999 -9999 -9999 -9999 -9999 -9999 -9999 -9999 -9999 -9999 -9999 -9999 -9999 -9999 -9999 -9999 -9999 -9999 -9999 -9999 -9999 -9999 -9999 -9999 -9999 -9999 -9999 -9999 -9999 -9999 -9999 -9999 -9999 -9999
-9999 -9999 -9999 -9999 -9999 -9999 -9999 -9999 -9999 -9999 -9999 -9999 -9999 -9999 -9999 614 616 616 636 643 651 -9999 -9999 -9999 536 536 508 476 469 469 465 461 458 474 512 532 547 575 566 544 516 488 465 437 417 417 427 418 412 433 453 462 445 427 440 450 459 459 457 507 501 480 473 520 570 590 594 594 606 613 631 658 700 763 807 819 850 834 794 793 799 784 791 777 752 707 703 709 661 597 544 508 497 497 474 441 420 411 405 378 365 347 334 321 302 332 375 370 345 330 323 326 340 359 385 413 426 419 410 408 405 408 435 474 493 502 509 498 496 485 450 417 408 435 444 440 437 438 431 408 378 352 340 336 325 313 304 298 307 314 297 271 255 261 274 281 280 276 273 261 250 253 242 239 252 262 266 256 230 253 273 276 277 275 257 236 225 221 209 197 191 186 182 180 180 180 180 179 174 169 170 176 183 187 188 186 180 180 186 188 196 200 193 196 203 203 201 196 193 192 191 193 193 194 194 193 195 194 191 188 188 190 191 189 189 189 189 190 192 195 202 217 220 216 213 211 210 211 213 217 230 244 242 235 231 230 235 237 233 232 228 238 255 263 259 261 259 253 244 238 244 255 260 253 253 268 281 269 253 246 240 234 231 231 231 231 231 232 233 236 236 237 240 244 245 251 253 252 255 259 259 266 299 364 405 405 379 339 316 310 313 319 330 343 356 380 400 412 438 469 496 551 603 606 596 630 689 703 669 699 771 859 884 835 743 648 -9999 -9999 -9999 -9999 -9999 -9999 -9999 -9999 -9999 -9999 -9999 -9999 -9999 -9999 -9999 -9999 -9999 -9999 -9999 1177 1204 -9999 -9999 818 716 699 778 776 810 845 826 846 897 901 836 781 762 844 977 972 865 737 655 601 539 513 537 605 715 823 888 912 965 941 844 742 722 743 711 670 673 751 724 694 661 632 579 528 501 509 514 462 418 435 477 455 402 367 343 324 306 -9999 -9999 -9999 -9999 -9999 -9999 -9999 -9999 -9999 -9999 -9999 -9999 -9999 -9999 -9999 -9999 -9999 -9999 -9999 -9999 -9999 -9999 -9999 -9999 -9999 -9999 -9999 -9999 -9999 -9999 -9999 -9999 -9999 -9999 -9999 -9999 -9999 -9999 -9999 -9999 -9999 -9999 -9999 -9999 -9999 -9999 -9999 -9999 -9999 -9999 -9999 -9999 -9999 -9999 -9999 -9999 -9999 -9999 -9999 -9999 -9999 -9999 -9999 -9999 -9999 -9999 -9999 -9999 -9999 -9999 -9999 -9999 -9999 -9999 -9999 -9999 -9999 -9999 -9999 -9999 -9999 -9999 -9999 -9999 -9999 -9999 -9999 -9999 -9999 -9999 -9999 -9999
-9999 -9999 -9999 -9999 -9999 -9999 -9999 -9999 -9999 -9999 -9999 -9999 -9999 -9999 -9999 596 597 595 611 608 607 -9999 -9999 -9999 507 498 475 461 462 464 459 455 457 469 481 516 548 539 509 490 482 475 454 432 415 407 407 408 415 431 432 429 447 451 444 494 497 504 533 542 497 498 517 536 561 576 574 576 593 610 621 634 676 728 750 778 809 780 749 762 780 773 782 763 749 724 704 706 676 631 577 533 499 476 445 414 386 378 370 366 357 347 346 331 307 327 367 386 388 372 353 347 352 352 360 390 416 419 403 390 387 395 409 429 455 485 495 483 485 484 470 459 461 457 441 428 417 422 431 424 409 396 380 356 333 318 313 310 304 291 274 269 284 300 311 307 292 280 274 270 263 255 267 279 279 282 287 280 235 230 252 260 268 275 272 254 236 225 214 204 197 192 187 186 184 183 183 184 181 171 169 172 178 182 186 184 178 178 184 186 188 189 196 192 193 198 199 199 197 193 190 189 191 192 192 191 191 192 190 188 188 187 187 188 189 189 189 189 190 194 200 218 227 226 218 214 211 211 213 217 224 241 247 238 231 228 231 238 240 230 224 238 255 256 251 253 253 255 253 242 242 252 251 251 264 280 279 261 247 243 240 233 230 229 230 231 232 233 234 236 237 237 237 238 240 244 247 255 262 263 264 267 291 362 422 426 397 353 325 312 309 320 330 341 357 385 395 399 415 436 468 516 571 602 576 587 631 667 648 683 747 795 820 782 722 -9999 -9999 -9999 -9999 -9999 -9999 -9999 -9999 -9999 -9999 -9999 -9999 -9999 -9999 -9999 -9999 -9999 -9999 -9999 -9999 1012 1035 1118 1026 867 721 665 675 668 713 770 766 782 819 834 779 759 847 1019 1166 1142 997 842 753 668 573 538 604 645 672 755 901 984 1060 1012 885 765 684 685 724 729 675 693 678 636 639 597 544 496 476 464 473 459 416 424 455 441 398 363 -9999 -9999 -9999 -9999 -9999 -9999 -9999 -9999 -9999 -9999 -9999 -9999 -9999 -9999 -9999 -9999 -9999 -9999 -9999 -9999 -9999 -9999 -9999 -9999 -9999 -9999 -9999 -9999 -9999 -9999 -9999 -9999 -9999 -9999 -9999 -9999 -9999 -9999 -9999 -9999 -9999 -9999 -9999 -9999 -9999 -9999 -9999 -9999 -9999 -9999 -9999 -9999 -9999 -9999 -9999 -9999 -9999 -9999 -9999 -9999 -9999 -9999 -9999 -9999 -9999 -9999 -9999 -9999 -9999 -9999 -9999 -9999 -9999 -9999 -9999 -9999 -9999 -9999 -9999 -9999 -9999 -9999 -9999 -9999 -9999 -9999 -9999 -9999 -9999 -9999 -9999 -9999 -9999 -9999 -9999
-9999 -9999 -9999 -9999 -9999 -9999 -9999 -9999 -9999 -9999 -9999 -9999 -9999 -9999 -9999 587 578 568 566 570 573 558 535 512 493 477 461 451 453 456 453 454 455 467 471 482 507 502 496 480 459 457 447 431 419 416 420 435 450 458 452 460 489 523 521 539 611 637 635 574 498 515 523 537 551 552 551 566 581 595 614 643 680 705 731 745 748 736 711 721 740 736 741 728 718 711 695 695 665 624 587 534 500 476 467 439 391 362 347 346 349 350 338 318 312 319 323 334 359 379 379 366 376 386 380 379 401 417 416 398 378 376 386 405 417 420 442 473 468 463 478 481 467 445 427 422 422 415 417 422 423 413 382 353 341 340 336 320 299 292 295 307 326 330 314 292 279 272 265 259 252 276 300 306 309 303 295 282 241 220 255 273 276 276 277 275 258 237 222 211 204 199 195 195 194 193 193 190 184 176 170 171 175 178 183 184 178 178 182 183 182 181 183 182 182 186 190 196 197 195 191 188 189 189 188 188 187 187 188 188 188 187 187 188 189 189 188 188 190 196 201 221 230 229 227 220 214 213 213 215 218 226 239 242 236 231 229 234 234 226 227 240 246 245 242 243 244 245 245 240 251 266 257 258 273 280 271 254 243 237 233 230 228 228 230 233 234 236 237 238 240 241 241 241 239 241 245 250 255 261 266 268 278 320 394 420 392 351 322 310 311 322 333 335 355 384 389 383 399 420 445 481 521 557 555 563 576 597 609 650 698 733 748 746 701 644 -9999 -9999 -9999 -9999 -9999 -9999 -9999 -9999 -9999 -9999 -9999 -9999 -9999 -9999 -9999 -9999 -9999 1144 1036 939 990 1138 1041 827 692 626 603 599 635 666 690 741 788 766 730 783 928 1025 1140 1219 1122 931 745 637 578 551 610 719 812 835 928 1023 1101 1052 918 776 676 676 745 789 724 650 669 639 619 621 593 523 550 534 463 422 397 413 -9999 -9999 -9999 -9999 -9999 -9999 -9999 -9999 -9999 -9999 -9999 -9999 -9999 -9999 -9999 -9999 -9999 -9999 -9999 -9999 -9999 -9999 -9999 -9999 -9999 -9999 -9999 -9999 -9999 -9999 -9999 -9999 -9999 -9999 -9999 -9999 -9999 -9999 -9999 -9999 -9999 -9999 -9999 -9999 -9999 -9999 -9999 -9999 -9999 -9999 -9999 -9999 -9999 -9999 -9999 -9999 -9999 -9999 -9999 -9999 -9999 -9999 -9999 -9999 -9999 -9999 -9999 -9999 -9999 -9999 -9999 -9999 -9999 -9999 -9999 -9999 -9999 -9999 -9999 -9999 -9999 -9999 -9999 -9999 -9999 -9999 -9999 -9999 -9999 -9999 -9999 -9999 -9999 -9999 -9999 -9999 -9999 -9999 -9999
-9999 -9999 -9999 -9999 -9999 -9999 -9999 -9999 -9999 -9999 -9999 -9999 -9999 -9999 -9999 589 580 554 542 543 537 531 522 505 486 468 457 453 448 445 446 451 451 462 466 463 481 514 533 505 465 464 466 447 422 416 428 444 457 474 504 563 584 586 566 541 627 687 686 622 524 537 549 531 531 554 566 573 583 597 628 673 685 691 697 715 727 706 688 691 691 684 689 684 675 678 677 660 641 576 541 507 457 436 454 429 385 360 345 336 338 332 321 318 328 348 353 339 340 371 396 388 385 403 411 403 404 406 408 402 383 366 373 387 394 407 429 443 457 454 449 458 461 447 433 448 451 429 408 411 423 417 399 384 379 369 341 313 304 343 351 344 334 315 296 286 282 275 271 270 263 291 314 315 316 309 300 291 259 227 256 278 282 285 288 290 269 245 233 226 219 213 207 207 206 204 202 197 191 186 181 174 171 173 176 179 177 178 180 180 179 179 179 178 177 180 184 187 187 187 186 185 185 186 187 187 187 186 186 186 186 186 187 188 189 188 187 188 190 197 206 228 237 236 236 229 220 218 216 216 218 222 230 244 244 235 230 235 233 225 232 238 238 237 237 234 234 236 236 235 245 251 244 244 251 255 255 246 240 234 230 227 227 230 236 241 244 246 247 246 249 248 248 251 247 242 243 246 249 256 261 266 271 285 339 391 381 341 313 305 311 324 333 328 339 361 366 375 398 405 411 437 474 516 525 524 534 574 611 633 668 699 707 706 689 626 -9999 -9999 -9999 -9999 -9999 -9999 -9999 -9999 -9999 -9999 -9999 -9999 -9999 -9999 -9999 -9999 -9999 1010 909 936 1108 1200 1056 849 728 638 586 568 621 695 733 750 750 702 704 780 850 929 1121 1286 1228 986 779 658 596 587 644 731 884 934 965 1018 1072 1069 967 809 685 646 705 782 744 658 627 626 575 548 561 534 594 622 553 457 400 385 -9999 -9999 -9999 -9999 -9999 -9999 -9999 -9999 -9999 -9999 -9999 -9999 -9999 -9999 -9999 -9999 -9999 -9999 -9999 -9999 -9999 -9999 -9999 -9999 -9999 -9999 -9999 -9999 -9999 -9999 -9999 -9999 -9999 -9999 -9999 -9999 -9999 -9999 -9999 -9999 -9999 -9999 -9999 -9999 -9999 -9999 -9999 -9999 -9999 -9999 -9999 -9999 -9999 -9999 -9999 -9999 -9999 -9999 -9999 -9999 -9999 -9999 -9999 -9999 -9999 -9999 -9999 -9999 -9999 -9999 -9999 -9999 -9999 -9999 -9999 -9999 -9999 -9999 -9999 -9999 -9999 -9999 -9999 -9999 -9999 -9999 -9999 -9999 -9999 -9999 -9999 -9999 -9999 -9999 -9999 -9999 -9999 -9999 -9999
-9999 -9999 -9999 -9999 -9999 -9999 -9999 -9999 -9999 -9999 -9999 -9999 -9999 -9999 -9999 555 553 539 534 533 533 520 509 495 482 467 454 446 440 436 439 446 448 458 462 455 461 502 517 488 457 454 458 434 411 425 447 469 505 535 577 642 656 629 585 540 582 636 649 581 517 552 572 558 552 584 600 588 592 602 622 653 666 681 684 694 702 679 667 663 659 656 651 640 634 637 644 631 601 557 505 474 439 421 440 416 381 358 347 335 324 321 338 354 360 370 372 368 354 356 376 394 411 411 408 413 414 406 402 403 393 372 361 363 370 378 397 424 450 453 446 441 441 439 449 466 456 430 411 406 420 426 421 414 398 368 338 324 320 345 353 340 323 326 321 305 290 281 285 281 273 283 297 303 309 310 307 296 247 228 241 253 264 277 290 297 280 260 252 240 229 222 214 217 220 221 216 208 204 204 205 195 180 172 171 174 175 175 175 174 175 175 175 176 176 176 177 178 178 179 181 184 186 187 187 186 185 185 185 185 185 186 187 187 188 188 187 187 190 199 205 226 239 239 241 237 229 225 221 219 219 221 225 239 249 242 232 235 234 225 226 226 225 226 226 226 226 228 229 231 234 236 237 239 239 240 241 238 234 230 227 226 228 237 253 260 258 260 262 256 256 257 256 257 259 256 247 244 246 251 260 267 270 276 308 360 361 324 308 303 310 326 323 312 326 339 346 365 385 409 416 425 454 494 502 522 534 557 586 604 631 662 675 665 639 598 -9999 -9999 -9999 -9999 -9999 -9999 -9999 -9999 -9999 -9999 -9999 -9999 -9999 -9999 -9999 -9999 -9999 936 854 965 1166 1209 1111 893 742 645 578 552 602 677 723 713 683 688 757 849 927 1033 1182 1261 1170 1007 859 711 619 614 713 802 892 988 1012 983 985 1039 1023 901 763 647 682 759 756 714 635 615 634 588 542 574 643 659 601 496 415 381 -9999 -9999 -9999 -9999 -9999 -9999 -9999 -9999 -9999 -9999 -9999 -9999 -9999 -9999 -9999 -9999 -9999 -9999 -9999 -9999 -9999 -9999 -9999 -9999 -9999 -9999 -9999 -9999 -9999 -9999 -9999 -9999 -9999 -9999 -9999 -9999 -9999 -9999 -9999 -9999 -9999 -9999 -9999 -9999 -9999 -9999 -9999 -9999 -9999 -9999 -9999 -9999 -9999 -9999 -9999 -9999 -9999 -9999 -9999 -9999 -9999 -9999 -9999 -9999 -9999 -9999 -9999 -9999 -9999 -9999 -9999 -9999 -9999 -9999 -9999 -9999 -9999 -9999 -9999 -9999 -9999 -9999 -9999 -9999 -9999 -9999 -9999 -9999 -9999 -9999 -9999 -9999 -9999 -9999 -9999 -9999 -9999 -9999 -9999
-9999 -9999 -9999 -9999 -9999 -9999 -9999 -9999 -9999 -9999 -9999 -9999 -9999 -9999 569 552 534 522 521 521 520 509 493 477 467 462 454 447 440 436 435 441 443 452 457 450 458 503 503 456 435 442 427 415 419 451 497 564 619 626 646 681 669 634 607 580 569 591 605 584 525 540 601 613 601 616 635 632 631 640 642 650 664 671 671 673 667 651 643 637 640 648 631 615 604 601 606 609 584 545 510 499 454 414 397 386 373 356 345 340 332 343 338 342 354 371 385 390 376 356 364 391 408 402 391 396 409 407 400 395 394 384 363 351 355 376 412 447 474 485 477 463 463 461 471 476 460 437 418 406 407 416 422 424 416 392 358 337 332 344 341 339 344 341 326 310 303 298 293 287 291 286 287 299 307 307 303 276 238 221 218 210 229 259 281 293 292 272 257 245 235 227 226 234 235 232 227 220 222 223 220 210 200 188 177 173 173 174 175 174 174 174 175 177 177 177 177 178 178 179 179 180 182 183 184 184 184 185 186 186 186 186 187 187 188 188 188 188 190 201 207 210 216 228 243 241 232 231 230 227 225 223 224 229 241 242 233 230 226 220 219 220 222 224 225 226 228 229 229 232 235 236 236 238 239 240 238 233 231 228 227 226 231 244 251 257 264 273 278 266 266 273 269 263 264 268 264 250 244 246 252 261 268 273 291 333 338 310 308 302 311 330 320 312 332 332 345 371 402 432 445 433 440 465 480 505 530 538 552 569 601 627 631 648 632 613 602 -9999 -9999 -9999 -9999 -9999 -9999 -9999 -9999 -9999 -9999 -9999 -9999 -9999 -9999 -9999 995 870 835 1008 1161 1162 1087 882 709 628 566 536 584 654 688 675 661 723 786 862 941 1057 1201 1252 1201 1115 921 745 668 629 677 816 949 1048 1103 1046 933 866 914 932 841 687 634 728 729 680 662 695 680 641 624 649 664 645 598 516 448 407 383 -9999 -9999 -9999 -9999 -9999 -9999 -9999 -9999 -9999 -9999 -9999 -9999 -9999 -9999 -9999 -9999 -9999 -9999 -9999 -9999 -9999 -9999 -9999 -9999 -9999 -9999 -9999 -9999 -9999 -9999 -9999 -9999 -9999 -9999 -9999 -9999 -9999 -9999 -9999 -9999 -9999 -9999 -9999 -9999 -9999 -9999 -9999 -9999 -9999 -9999 -9999 -9999 -9999 -9999 -9999 -9999 -9999 -9999 -9999 -9999 -9999 -9999 -9999 -9999 -9999 -9999 -9999 -9999 -9999 -9999 -9999 -9999 -9999 -9999 -9999 -9999 -9999 -9999 -9999 -9999 -9999 -9999 -9999 -9999 -9999 -9999 -9999 -9999 -9999 -9999 -9999 -9999 -9999 -9999 -9999 -9999 -9999 -9999
-9999 -9999 -9999 -9999 -9999 -9999 -9999 -9999 -9999 -9999 -9999 -9999 -9999 -9999 572 564 537 523 517 512 494 477 465 459 458 457 454 448 443 441 437 436 436 442 449 445 443 457 452 453 438 429 432 445 470 522 589 667 713 696 695 745 712 636 614 606 600 588 604 596 548 536 603 649 645 672 672 667 661 667 673 687 680 662 665 669 656 638 625 634 623 625 628 602 582 576 576 577 559 518 480 467 439 413 398 379 369 368 365 351 341 357 351 350 366 382 395 397 381 373 376 395 406 399 386 380 385 394 394 391 393 391 373 352 352 370 395 414 431 454 466 467 455 439 452 472 466 446 431 421 406 396 398 412 420 405 387 382 373 370 360 346 336 340 343 339 328 316 310 304 298 292 299 307 304 295 287 282 281 268 246 215 236 273 291 296 292 269 253 245 239 238 246 245 241 235 231 233 236 232 224 219 219 215 201 189 184 185 182 179 177 176 185 191 188 183 180 180 181 181 181 181 181 183 184 185 185 185 186 186 186 186 187 188 188 188 189 189 191 203 213 212 209 225 247 249 242 237 237 237 237 234 233 230 231 237 236 225 219 218 218 222 226 228 229 230 231 233 234 236 238 240 242 245 244 241 237 231 229 227 226 225 232 252 264 270 271 275 280 270 264 273 272 269 272 269 270 264 252 247 249 254 263 269 277 299 299 298 315 305 313 317 314 321 329 321 329 360 392 428 467 457 431 442 456 496 526 530 523 530 557 589 591 616 640 635 612 -9999 -9999 -9999 -9999 -9999 -9999 -9999 -9999 -9999 -9999 -9999 -9999 -9999 -9999 -9999 879 780 829 985 1098 1115 989 832 696 624 576 532 559 629 646 650 661 713 780 870 949 1034 1100 1146 1113 1123 987 848 842 737 698 830 969 999 1047 1045 972 842 794 837 822 698 611 706 743 700 686 675 649 630 671 685 648 600 570 560 539 488 433 396 365 -9999 -9999 -9999 -9999 -9999 -9999 -9999 -9999 -9999 -9999 -9999 -9999 -9999 -9999 -9999 -9999 -9999 -9999 -9999 -9999 -9999 -9999 -9999 -9999 -9999 -9999 -9999 -9999 -9999 -9999 -9999 -9999 -9999 -9999 -9999 -9999 -9999 -9999 -9999 -9999 -9999 -9999 -9999 -9999 -9999 -9999 -9999 -9999 -9999 -9999 -9999 -9999 -9999 -9999 -9999 -9999 -9999 -9999 -9999 -9999 -9999 -9999 -9999 -9999 -9999 -9999 -9999 -9999 -9999 -9999 -9999 -9999 -9999 -9999 -9999 -9999 -9999 -9999 -9999 -9999 -9999 -9999 -9999 -9999 -9999 -9999 -9999 -9999 -9999 -9999 -9999 -9999 -9999 -9999 -9999 -9999
-9999 -9999 -9999 -9999 -9999 -9999 -9999 -9999 -9999 -9999 -9999 -9999 -9999 -9999 553 571 548 535 522 502 478 458 448 442 442 445 448 444 436 434 437 435 430 433 435 434 427 420 443 460 465 460 462 491 522 590 674 716 729 705 721 741 715 666 642 633 629 617 625 626 560 556 623 676 669 655 658 675 683 689 702 718 706 661 655 657 648 635 616 629 633 606 605 599 574 558 560 563 548 502 454 429 418 404 391 385 381 370 358 362 369 366 349 348 375 395 409 406 404 408 412 414 403 391 384 374 366 369 375 385 387 384 370 352 343 356 376 387 409 433 437 438 450 443 429 451 465 456 453 447 428 409 395 389 407 419 418 412 403 390 367 352 349 356 357 351 345 338 325 306 298 302 314 316 313 303 287 275 267 262 241 218 239 264 275 290 292 270 255 250 249 250 249 243 236 233 234 240 241 236 233 234 233 232 222 205 196 195 190 186 188 187 185 185 185 184 183 183 183 183 183 183 184 184 185 185 185 186 186 186 187 187 187 188 188 188 190 191 194 206 232 233 214 207 213 215 219 234 245 246 235 228 231 232 229 235 233 221 218 219 221 225 228 232 237 239 240 240 242 246 254 257 261 262 250 240 234 230 227 226 225 225 226 232 243 255 265 275 279 279 282 284 280 278 279 281 279 277 264 253 249 251 255 261 271 294 288 295 306 293 289 292 299 315 326 338 343 349 377 419 455 455 428 418 439 487 523 534 515 508 521 542 571 596 601 601 578 -9999 -9999 -9999 -9999 -9999 -9999 -9999 -9999 -9999 -9999 -9999 -9999 -9999 -9999 804 782 724 788 902 955 1019 973 828 701 620 571 532 539 598 615 634 625 675 829 997 1047 1004 973 964 966 1061 1007 958 983 832 731 804 950 963 929 887 846 771 699 674 653 598 573 660 704 659 618 601 599 599 657 663 621 576 559 534 499 483 445 400 370 -9999 -9999 -9999 -9999 -9999 -9999 -9999 -9999 -9999 -9999 -9999 -9999 -9999 -9999 -9999 -9999 -9999 -9999 -9999 -9999 -9999 -9999 -9999 -9999 -9999 -9999 -9999 -9999 -9999 -9999 -9999 -9999 -9999 -9999 -9999 -9999 -9999 -9999 -9999 -9999 -9999 -9999 -9999 -9999 -9999 -9999 -9999 -9999 -9999 -9999 -9999 -9999 -9999 -9999 -9999 -9999 -9999 -9999 -9999 -9999 -9999 -9999 -9999 -9999 -9999 -9999 -9999 -9999 -9999 -9999 -9999 -9999 -9999 -9999 -9999 -9999 -9999 -9999 -9999 -9999 -9999 -9999 -9999 -9999 -9999 -9999 -9999 -9999 -9999 -9999 -9999 -9999 -9999 -9999 -9999 -9999
-9999 -9999 -9999 -9999 -9999 -9999 -9999 -9999 -9999 -9999 -9999 -9999 -9999 -9999 520 518 510 520 506 473 458 453 447 442 442 441 440 439 433 428 427 426 424 424 421 419 417 421 455 482 482 483 512 550 576 631 697 727 715 701 715 732 723 706 703 680 654 652 650 609 547 600 677 719 715 687 671 683 696 696 691 724 734 679 639 639 631 621 610 626 632 598 580 586 564 552 561 565 545 507 476 438 411 394 383 381 374 368 380 393 387 371 353 357 375 395 427 444 453 438 416 403 393 385 378 369 368 373 375 384 381 375 366 348 345 362 367 373 390 418 436 431 424 429 417 428 460 460 438 422 413 404 397 389 387 399 415 418 414 405 389 381 380 375 365 352 339 328 318 306 312 321 327 327 316 296 286 284 277 264 252 230 248 278 291 302 306 287 267 260 260 261 259 256 248 247 245 247 247 246 246 245 242 237 229 217 207 203 200 194 191 191 189 190 191 190 188 186 185 185 185 185 186 186 185 185 186 186 187 187 187 187 187 187 187 188 189 191 193 200 219 221 209 202 202 203 204 208 216 217 213 211 217 227 230 230 224 219 226 227 229 232 233 238 249 256 258 255 261 267 266 255 252 251 244 236 229 227 225 224 224 224 224 226 232 241 250 268 277 276 282 286 285 289 286 288 289 288 278 262 252 250 252 256 266 293 292 292 289 281 284 296 311 327 337 345 352 359 377 412 424 418 417 415 424 455 493 521 509 490 498 505 531 567 583 564 563 599 627 -9999 -9999 -9999 -9999 -9999 -9999 -9999 -9999 -9999 -9999 633 676 708 707 685 743 822 832 925 943 796 708 632 565 537 567 596 590 600 603 678 829 1014 1120 1093 914 818 925 974 1007 1051 1021 931 883 832 892 972 935 858 783 783 825 772 673 614 570 570 595 611 613 570 560 584 635 670 647 631 635 600 520 453 416 407 401 367 -9999 -9999 337 341 -9999 -9999 -9999 -9999 -9999 -9999 -9999 -9999 -9999 -9999 -9999 -9999 -9999 -9999 -9999 -9999 -9999 -9999 -9999 -9999 -9999 -9999 -9999 -9999 -9999 -9999 -9999 -9999 -9999 -9999 -9999 -9999 -9999 -9999 -9999 -9999 -9999 -9999 -9999 -9999 -9999 -9999 -9999 -9999 -9999 -9999 -9999 -9999 -9999 -9999 -9999 -9999 -9999 -9999 -9999 -9999 -9999 -9999 -9999 -9999 -9999 -9999 -9999 -9999 -9999 -9999 -9999 -9999 -9999 -9999 -9999 -9999 -9999 -9999 -9999 -9999 -9999 -9999 -9999 -9999 -9999 -9999 -9999 -9999 -9999 -9999 -9999 -9999 -9999 -9999 -9999
-9999 -9999 -9999 -9999 -9999 -9999 -9999 -9999 -9999 -9999 -9999 -9999 -9999 -9999 -9999 -9999 474 475 464 453 457 465 460 461 463 453 441 433 433 437 433 430 430 426 422 430 433 436 462 498 505 520 559 580 592 616 659 706 720 726 759 777 758 757 771 745 700 692 677 634 578 613 663 717 730 712 713 712 685 664 667 708 700 652 623 637 630 620 604 623 638 603 562 560 551 540 555 561 536 514 518 482 439 423 438 436 410 398 406 406 388 374 378 397 424 437 449 472 485 472 431 410 408 404 398 380 368 379 381 379 374 367 360 345 364 376 365 376 392 416 430 429 417 408 414 439 459 466 456 435 417 411 415 405 390 389 398 402 409 411 407 402 391 377 366 358 349 339 325 320 331 340 330 317 305 313 316 312 302 284 257 231 256 285 302 311 309 296 282 275 273 273 271 266 260 260 260 259 258 257 253 249 246 247 241 232 224 220 215 207 197 192 192 200 207 205 197 194 192 190 190 190 191 189 186 186 187 187 187 187 187 188 187 187 187 187 188 190 192 194 198 200 200 200 203 208 210 212 214 215 215 216 212 212 217 223 217 217 222 227 235 240 239 242 253 270 273 263 263 270 262 246 236 231 230 228 227 226 224 224 224 223 224 229 236 241 242 247 253 254 255 264 282 290 292 287 278 278 280 272 258 253 255 256 257 265 268 271 271 274 284 295 309 322 329 335 341 341 353 382 390 411 441 455 445 452 473 490 495 474 473 481 499 536 560 542 578 636 652 662 -9999 -9999 -9999 -9999 -9999 -9999 -9999 -9999 570 597 653 652 641 647 694 719 773 895 879 734 661 604 540 542 585 583 566 564 585 645 734 850 982 1047 880 784 849 845 907 1003 1066 1072 1094 1053 986 939 897 824 822 927 932 786 728 754 675 587 550 539 538 529 580 639 641 652 635 624 608 590 568 499 453 445 423 394 363 338 327 323 323 -9999 -9999 -9999 -9999 -9999 -9999 -9999 -9999 -9999 -9999 -9999 -9999 -9999 -9999 -9999 -9999 -9999 -9999 -9999 -9999 -9999 -9999 -9999 -9999 -9999 -9999 -9999 -9999 -9999 -9999 -9999 -9999 -9999 -9999 -9999 -9999 -9999 -9999 -9999 -9999 -9999 -9999 -9999 -9999 -9999 -9999 -9999 -9999 -9999 -9999 -9999 -9999 -9999 -9999 -9999 -9999 -9999 -9999 -9999 -9999 -9999 -9999 -9999 -9999 -9999 -9999 -9999 -9999 -9999 -9999 -9999 -9999 -9999 -9999 -9999 -9999 -9999 -9999 -9999 -9999 -9999 -9999 -9999 -9999 -9999 -9999 -9999 -9999 -9999 -9999
-9999 -9999 -9999 -9999 -9999 -9999 -9999 -9999 -9999 -9999 -9999 -9999 -9999 -9999 -9999 -9999 -9999 450 451 453 464 470 463 464 472 464 453 441 441 447 449 450 452 439 436 452 459 453 467 491 518 546 569 593 610 620 659 712 748 747 753 783 784 775 773 758 722 702 677 623 554 584 650 693 704 697 685 674 658 633 625 653 658 624 607 633 614 603 586 603 636 610 567 544 533 530 547 535 500 485 504 518 505 477 491 513 493 456 425 401 385 379 395 425 454 470 471 475 477 459 414 395 399 403 405 396 377 370 368 371 375 374 369 352 358 363 359 373 388 415 439 440 421 395 395 418 439 458 453 437 426 428 429 419 408 398 394 393 398 406 415 407 392 382 370 355 344 333 333 342 347 344 339 340 330 333 334 331 316 281 242 215 242 271 282 280 280 285 288 283 280 279 278 278 275 274 274 271 266 262 257 252 250 253 251 246 242 241 232 222 213 200 196 199 216 227 219 209 206 201 199 196 192 188 187 187 187 187 187 187 188 189 188 188 188 188 188 189 191 193 194 195 197 202 214 226 224 222 223 223 220 219 216 212 211 212 212 213 217 227 235 238 241 253 260 269 270 265 256 260 259 244 233 229 227 226 225 224 223 223 223 223 225 233 236 236 238 240 242 242 246 260 279 293 297 294 284 274 270 272 265 258 267 271 266 262 263 267 271 274 281 285 295 308 317 322 318 333 385 440 452 426 433 455 447 442 462 465 472 466 455 466 495 523 540 528 566 610 650 690 702 -9999 -9999 -9999 -9999 -9999 -9999 -9999 555 586 614 612 612 608 626 672 734 742 713 643 628 606 544 560 578 561 540 531 574 679 770 796 801 831 750 703 715 702 757 885 1028 1141 1241 1249 1120 966 858 863 919 957 892 759 825 861 767 704 666 615 561 512 565 637 627 613 592 560 543 518 503 489 482 494 480 441 396 358 329 317 314 314 -9999 -9999 -9999 -9999 -9999 -9999 -9999 -9999 -9999 -9999 -9999 -9999 -9999 -9999 -9999 -9999 -9999 -9999 -9999 -9999 -9999 -9999 -9999 -9999 -9999 -9999 -9999 -9999 -9999 -9999 -9999 -9999 -9999 -9999 -9999 -9999 -9999 -9999 -9999 -9999 -9999 -9999 -9999 -9999 -9999 -9999 -9999 -9999 -9999 -9999 -9999 -9999 -9999 -9999 -9999 -9999 -9999 -9999 -9999 -9999 -9999 -9999 -9999 -9999 -9999 -9999 -9999 -9999 -9999 -9999 -9999 -9999 -9999 -9999 -9999 -9999 -9999 -9999 -9999 -9999 -9999 -9999 -9999 -9999 -9999 -9999 -9999 -9999 -9999
-9999 -9999 -9999 -9999 -9999 -9999 -9999 -9999 -9999 -9999 -9999 -9999 -9999 -9999 -9999 -9999 -9999 -9999 475 469 463 459 455 457 476 480 461 446 450 456 457 460 458 441 441 447 452 459 479 508 552 593 628 651 663 651 665 714 750 753 758 769 782 778 745 705 660 628 611 575 577 634 674 692 698 689 661 641 631 618 599 601 620 605 586 602 587 583 581 565 587 608 584 561 537 528 523 499 473 468 489 526 549 548 536 547 556 531 462 413 401 395 393 409 438 461 473 475 465 447 417 394 382 375 378 396 396 375 352 344 342 340 344 350 346 346 367 393 410 427 448 447 425 398 395 409 431 441 437 438 441 432 418 411 412 396 382 392 406 421 426 407 388 380 375 366 356 347 347 352 351 349 351 349 346 339 320 304 295 265 236 202 195 200 205 215 228 243 253 252 260 271 277 277 278 281 281 276 270 267 262 255 250 249 247 240 240 240 233 230 227 219 210 202 206 222 230 228 224 213 202 196 192 189 188 188 188 188 188 188 189 189 190 190 189 188 188 189 191 193 195 196 198 204 214 231 239 233 229 225 225 223 219 219 218 212 210 213 220 231 234 232 238 250 256 260 264 264 250 244 245 238 229 224 223 222 223 223 222 223 223 223 227 234 234 232 233 234 236 237 239 247 258 281 295 299 300 298 285 274 270 261 264 275 278 273 273 277 287 292 296 301 290 288 294 298 313 344 405 478 519 470 437 455 444 426 442 447 448 449 446 461 487 512 527 519 533 564 624 664 630 609 603 590 -9999 -9999 -9999 545 553 571 592 606 612 594 599 648 647 604 593 568 570 578 531 541 571 556 514 531 586 701 834 876 793 668 614 637 697 755 773 812 891 1083 1229 1281 1175 1060 973 956 999 929 824 762 853 855 802 762 703 644 580 518 574 628 619 582 550 532 516 511 502 461 451 497 484 437 400 359 331 324 331 327 -9999 -9999 -9999 -9999 -9999 -9999 -9999 -9999 -9999 -9999 -9999 -9999 -9999 -9999 -9999 -9999 -9999 -9999 -9999 -9999 -9999 -9999 -9999 -9999 -9999 -9999 -9999 -9999 -9999 -9999 -9999 -9999 -9999 -9999 -9999 -9999 -9999 -9999 -9999 -9999 -9999 -9999 -9999 -9999 -9999 -9999 -9999 -9999 -9999 -9999 -9999 -9999 -9999 -9999 -9999 -9999 -9999 -9999 -9999 -9999 -9999 -9999 -9999 -9999 -9999 -9999 -9999 -9999 -9999 -9999 -9999 -9999 -9999 -9999 -9999 -9999 -9999 -9999 -9999 -9999 -9999 -9999 -9999 -9999 -9999 -9999 -9999 -9999 -9999
