ncols        596
nrows        32
xllcorner    433447.848436
yllcorner    5595587.57098
cellsize     500.000000000000
NODATA_value -9999
245 285 313 303 304 337 351 334 326 309 281 253 305 402 438 475 497 457 398 356 313 286 301 347 409 463 518 575 598 599 593 578 560 548 541 541 540 528 518 508 499 499 491 436 383 372 380 378 368 377 389 385 391 401 396 384 378 368 358 328 304 298 295 285 283 283 276 269 267 267 272 279 279 272 269 269 264 261 264 265 263 269 275 273 273 281 288 294 296 299 302 302 300 295 285 283 286 290 295 303 310 319 320 314 305 300 305 320 340 359 368 378 392 393 375 360 360 358 365 374 369 380 402 425 434 424 431 432 416 399 367 328 322 339 365 394 404 394 386 363 337 346 388 425 426 397 366 364 383 408 441 454 446 450 471 511 524 477 459 475 453 402 346 307 335 407 451 441 397 394 438 474 494 509 497 447 439 447 398 358 381 430 468 474 493 497 487 517 568 593 604 599 599 582 550 493 442 438 465 490 510 567 601 627 618 567 543 566 648 676 661 689 752 818 836 790 721 639 587 644 727 735 724 715 665 603 608 670 756 829 874 922 911 842 864 1004 1156 1241 1260 1213 1093 1005 1016 983 881 781 696 633 599 643 727 826 919 958 986 975 907 814 715 647 614 592 582 582 568 538 517 498 492 495 507 553 642 727 761 -9999 -9999 -9999 -9999 -9999 -9999 -9999 -9999 -9999 -9999 -9999 675 651 622 607 597 583 568 555 554 572 594 -9999 -9999 -9999 -9999 -9999 -9999 -9999 -9999 483 489 485 485 493 510 518 508 522 546 569 565 554 558 552 521 511 537 586 624 653 -9999 -9999 -9999 -9999 -9999 -9999 -9999 -9999 -9999 -9999 -9999 -9999 -9999 -9999 -9999 -9999 -9999 -9999 -9999 -9999 -9999 -9999 -9999 -9999 -9999 -9999 -9999 -9999 -9999 -9999 -9999 -9999 -9999 -9999 -9999 -9999 -9999 -9999 -9999 -9999 -9999 -9999 -9999 -9999 -9999 -9999 -9999 -9999 -9999 -9999 -9999 -9999 -9999 -9999 -9999 -9999 -9999 -9999 -9999 -9999 -9999 -9999 -9999 -9999 -9999 -9999 -9999 -9999 -9999 -9999 -9999 -9999 -9999 -9999 -9999 -9999 -9999 -9999 -9999 -9999 -9999 -9999 -9999 -9999 -9999 -9999 -9999 -9999 -9999 -9999 -9999 -9999 -9999 -9999 -9999 -9999 -9999 -9999 -9999 -9999 -9999 -9999 -9999 -9999 -9999 -9999 -9999 -9999 -9999 -9999 -9999 -9999 -9999 -9999 -9999 -9999 -9999 -9999 -9999 -9999 -9999 -9999 -9999 -9999 -9999 -9999 -9999 -9999 -9999 -9999 -9999 -9999 -9999 -9999 -9999 -9999 -9999 -9999 -9999 -9999 -9999 -9999 -9999 -9999 -9999 -9999 -9999 -9999 -9999 -9999 -9999 -9999 -9999 -9999 -9999 -9999 -9999 -9999 -9999 -9999 -9999 -9999 -9999 -9999 -9999 -9999 -9999 -9999 -9999 -9999 -9999 -9999 -9999 -9999 -9999 -9999 -9999 -9999 -9999 -9999 -9999 -9999 -9999 -9999 -9999 -9999 -9999 -9999 -9999 -9999 -9999 -9999 -9999 -9999 -9999 -9999 -9999 -9999 -9999 -9999 -9999 -9999 -9999 -9999 -9999 -9999 -9999 -9999 -9999 -9999 -9999 -9999 -9999 -9999 -9999 -9999 -9999 -9999 -9999 -9999 -9999 -9999 -9999 -9999 -9999 -9999 -9999 -9999 -9999 -9999 -9999 -9999 -9999 -9999 -9999 -9999 -9999 -9999 -9999 -9999 -9999 -9999 -9999 -9999 -9999 -9999 -9999 -9999 -9999 -9999 -9999 -9999 -9999 -9999 -9999 -9999 -9999 -9999 -9999 -9999 -9999 -9999 -9999 -9999 -9999 -9999 -9999 -9999 -9999 -9999
317 369 395 361 329 355 385 376 359 354 351 302 291 337 377 433 504 527 503 458 393 338 312 335 399 449 493 535 552 561 574 576 569 560 549 549 558 565 563 550 537 533 520 464 392 345 328 319 317 333 347 343 343 348 347 346 345 332 323 311 292 284 283 276 277 286 288 283 275 271 273 279 283 278 270 268 266 262 261 263 263 263 268 272 275 280 289 295 288 284 289 297 298 294 285 280 284 286 287 291 295 298 300 297 294 302 315 328 343 349 359 374 389 393 379 360 349 347 350 351 361 383 395 403 408 403 406 411 401 394 374 336 335 375 399 408 411 391 380 364 335 344 388 419 423 401 368 381 422 447 469 475 463 456 461 469 477 443 392 394 385 343 304 300 321 378 424 425 385 376 408 424 434 449 469 450 406 392 369 369 407 449 479 471 473 479 498 531 556 570 588 581 570 557 545 533 491 443 462 487 512 558 573 607 588 539 559 611 659 650 617 632 682 730 735 698 656 610 563 585 640 666 672 674 657 603 591 667 733 744 771 834 857 791 823 959 1054 1120 1183 1191 1109 976 918 902 830 737 667 612 596 669 776 859 896 908 944 965 921 858 780 687 599 557 552 536 525 510 492 480 487 494 506 541 617 726 784 -9999 -9999 -9999 -9999 -9999 -9999 -9999 -9999 -9999 -9999 675 671 652 633 614 597 579 558 544 538 548 574 608 -9999 -9999 -9999 -9999 -9999 -9999 -9999 473 480 478 478 486 499 500 491 500 511 526 524 517 525 522 497 486 507 536 568 612 -9999 -9999 -9999 -9999 -9999 -9999 -9999 -9999 -9999 -9999 -9999 -9999 -9999 -9999 -9999 -9999 -9999 -9999 -9999 -9999 -9999 -9999 -9999 -9999 -9999 -9999 -9999 -9999 -9999 -9999 -9999 -9999 -9999 -9999 -9999 -9999 -9999 -9999 -9999 -9999 -9999 -9999 -9999 -9999 -9999 -9999 -9999 -9999 -9999 -9999 -9999 -9999 -9999 -9999 -9999 -9999 -9999 -9999 -9999 -9999 -9999 -9999 -9999 -9999 -9999 -9999 -9999 -9999 -9999 -9999 -9999 -9999 -9999 -9999 -9999 -9999 -9999 -9999 -9999 -9999 -9999 -9999 -9999 -9999 -9999 -9999 -9999 -9999 -9999 -9999 -9999 -9999 -9999 -9999 -9999 -9999 -9999 -9999 -9999 -9999 -9999 -9999 -9999 -9999 -9999 -9999 -9999 -9999 -9999 -9999 -9999 -9999 -9999 -9999 -9999 -9999 -9999 -9999 -9999 -9999 -9999 -9999 -9999 -9999 -9999 -9999 -9999 -9999 -9999 -9999 -9999 -9999 -9999 -9999 -9999 -9999 -9999 -9999 -9999 -9999 -9999 -9999 -9999 -9999 -9999 -9999 -9999 -9999 -9999 -9999 -9999 -9999 -9999 -9999 -9999 -9999 -9999 -9999 -9999 -9999 -9999 -9999 -9999 -9999 -9999 -9999 -9999 -9999 -9999 -9999 -9999 -9999 -9999 -9999 -9999 -9999 -9999 -9999 -9999 -9999 -9999 -9999 -9999 -9999 -9999 -9999 -9999 -9999 -9999 -9999 -9999 -9999 -9999 -9999 -9999 -9999 -9999 -9999 -9999 -9999 -9999 -9999 -9999 -9999 -9999 -9999 -9999 -9999 -9999 -9999 -9999 -9999 -9999 -9999 -9999 -9999 -9999 -9999 -9999 -9999 -9999 -9999 -9999 -9999 -9999 -9999 -9999 -9999 -9999 -9999 -9999 -9999 -9999 -9999 -9999 -9999 -9999 -9999 -9999 -9999 -9999 -9999 -9999 -9999 -9999 -9999 -9999 -9999 -9999 -9999 -9999 -9999 -9999 -9999 -9999 -9999 -9999 -9999 -9999 -9999 -9999 -9999 -9999 -9999 -9999 -9999 -9999 -9999 -9999 -9999
355 421 446 412 382 400 425 421 413 414 411 367 306 300 351 406 451 496 533 519 471 420 362 342 377 426 476 502 508 522 536 548 552 536 514 504 518 547 551 534 522 515 507 459 386 332 311 302 296 302 312 308 299 297 304 320 328 319 308 304 295 285 280 272 276 284 290 294 292 288 281 279 281 280 275 270 268 266 265 268 270 268 267 271 274 275 279 280 280 282 289 297 294 288 283 279 280 283 285 289 290 292 292 290 293 303 316 328 336 341 354 370 384 385 375 360 344 333 334 353 375 393 395 392 395 391 390 398 385 377 366 333 337 385 407 402 405 394 369 345 336 361 393 406 406 402 379 389 426 444 451 451 442 442 447 446 444 416 367 333 311 295 301 335 335 325 340 361 338 327 351 367 386 401 428 436 393 353 367 422 466 487 491 463 454 502 554 565 561 555 558 557 562 557 532 522 505 462 446 463 522 560 546 574 583 538 574 626 623 594 598 638 679 714 702 657 613 578 543 557 605 622 609 599 584 555 567 624 654 657 695 749 761 723 764 855 901 958 1032 1061 1041 970 865 806 774 723 654 594 590 664 757 810 831 824 852 896 861 818 788 713 620 550 525 506 481 472 471 472 493 507 510 537 609 713 746 -9999 -9999 -9999 -9999 -9999 -9999 -9999 -9999 -9999 648 651 643 643 652 642 625 606 567 535 528 537 556 586 614 -9999 -9999 -9999 -9999 -9999 -9999 460 468 470 474 482 486 485 478 481 490 500 498 486 500 503 480 469 481 503 536 581 638 -9999 -9999 -9999 -9999 -9999 -9999 -9999 -9999 -9999 -9999 -9999 -9999 -9999 -9999 -9999 -9999 -9999 -9999 -9999 -9999 -9999 -9999 -9999 -9999 -9999 -9999 -9999 -9999 -9999 -9999 -9999 -9999 -9999 -9999 -9999 -9999 -9999 -9999 -9999 -9999 -9999 -9999 -9999 -9999 -9999 -9999 -9999 -9999 -9999 -9999 -9999 -9999 -9999 -9999 -9999 -9999 -9999 -9999 -9999 -9999 -9999 -9999 -9999 -9999 -9999 -9999 -9999 -9999 -9999 -9999 -9999 -9999 -9999 -9999 -9999 -9999 -9999 -9999 -9999 -9999 -9999 -9999 -9999 -9999 -9999 -9999 -9999 -9999 -9999 -9999 -9999 -9999 -9999 -9999 -9999 -9999 -9999 -9999 -9999 -9999 -9999 -9999 -9999 -9999 -9999 -9999 -9999 -9999 -9999 -9999 -9999 -9999 -9999 -9999 -9999 -9999 -9999 -9999 -9999 -9999 -9999 -9999 -9999 -9999 -9999 -9999 -9999 -9999 -9999 -9999 -9999 -9999 -9999 -9999 -9999 -9999 -9999 -9999 -9999 -9999 -9999 -9999 -9999 -9999 -9999 -9999 -9999 -9999 -9999 -9999 -9999 -9999 -9999 -9999 -9999 -9999 -9999 -9999 -9999 -9999 -9999 -9999 -9999 -9999 -9999 -9999 -9999 -9999 -9999 -9999 -9999 -9999 -9999 -9999 -9999 -9999 -9999 -9999 -9999 -9999 -9999 -9999 -9999 -9999 -9999 -9999 -9999 -9999 -9999 -9999 -9999 -9999 -9999 -9999 -9999 -9999 -9999 -9999 -9999 -9999 -9999 -9999 -9999 -9999 -9999 -9999 -9999 -9999 -9999 -9999 -9999 -9999 -9999 -9999 -9999 -9999 -9999 -9999 -9999 -9999 -9999 -9999 -9999 -9999 -9999 -9999 -9999 -9999 -9999 -9999 -9999 -9999 -9999 -9999 -9999 -9999 -9999 -9999 -9999 -9999 -9999 -9999 -9999 -9999 -9999 -9999 -9999 -9999 -9999 -9999 -9999 -9999 -9999 -9999 -9999 -9999 -9999 -9999 -9999 -9999 -9999 -9999 -9999 -9999 -9999 -9999 -9999 -9999 -9999
306 396 450 449 435 463 488 476 471 462 443 405 348 311 347 402 421 440 492 529 516 460 398 365 368 400 445 463 473 494 509 525 538 526 486 447 450 473 473 454 440 434 434 411 359 315 298 294 290 289 294 292 283 279 286 301 313 310 299 297 294 286 278 269 267 272 281 291 296 291 282 285 290 282 276 274 272 272 270 269 269 271 271 269 268 272 277 281 286 290 293 294 291 285 280 276 278 283 286 285 287 289 288 288 290 292 297 306 317 333 354 376 383 374 368 359 348 337 336 367 397 402 394 382 384 383 383 395 384 354 326 320 350 385 392 382 395 397 359 330 347 367 371 382 388 392 378 379 404 420 426 427 422 419 420 420 422 415 365 307 291 319 368 404 394 377 343 312 304 305 309 318 333 361 397 398 371 357 393 452 481 484 458 440 469 524 568 564 557 551 532 533 565 581 565 539 516 481 465 492 519 513 500 527 558 523 519 537 541 556 601 664 699 716 706 678 645 594 544 569 619 613 577 562 553 531 539 570 588 611 649 685 676 650 684 740 769 817 878 909 906 877 805 726 683 660 631 587 587 645 705 744 763 748 790 860 833 762 742 714 651 570 514 484 469 481 497 499 511 526 529 536 574 623 643 -9999 -9999 -9999 -9999 -9999 -9999 -9999 -9999 642 635 622 610 624 640 633 618 604 579 541 533 558 569 571 589 -9999 -9999 -9999 -9999 -9999 -9999 453 456 460 464 473 473 466 460 466 481 499 502 485 494 486 466 476 486 497 526 569 632 691 -9999 -9999 -9999 -9999 -9999 -9999 -9999 -9999 -9999 -9999 -9999 -9999 -9999 -9999 -9999 -9999 -9999 -9999 -9999 -9999 -9999 -9999 -9999 -9999 -9999 -9999 -9999 -9999 -9999 -9999 -9999 -9999 -9999 -9999 -9999 -9999 -9999 -9999 -9999 -9999 -9999 -9999 -9999 -9999 -9999 -9999 -9999 -9999 -9999 -9999 -9999 -9999 -9999 -9999 -9999 -9999 -9999 -9999 -9999 -9999 -9999 -9999 -9999 -9999 -9999 -9999 -9999 -9999 -9999 -9999 -9999 -9999 -9999 -9999 -9999 -9999 -9999 -9999 -9999 -9999 -9999 -9999 -9999 -9999 -9999 -9999 -9999 -9999 -9999 -9999 -9999 -9999 -9999 -9999 -9999 -9999 -9999 -9999 -9999 -9999 -9999 -9999 -9999 -9999 -9999 -9999 -9999 -9999 -9999 -9999 -9999 -9999 -9999 -9999 -9999 -9999 -9999 -9999 -9999 -9999 -9999 -9999 -9999 -9999 -9999 -9999 -9999 -9999 -9999 -9999 -9999 -9999 -9999 -9999 -9999 -9999 -9999 -9999 -9999 -9999 -9999 -9999 -9999 -9999 -9999 -9999 -9999 -9999 -9999 -9999 -9999 -9999 -9999 -9999 -9999 -9999 -9999 -9999 -9999 -9999 -9999 -9999 -9999 -9999 -9999 -9999 -9999 -9999 -9999 -9999 -9999 -9999 -9999 -9999 -9999 -9999 -9999 -9999 -9999 -9999 -9999 -9999 -9999 -9999 -9999 -9999 -9999 -9999 -9999 -9999 -9999 -9999 -9999 -9999 -9999 -9999 -9999 -9999 -9999 -9999 -9999 -9999 -9999 -9999 -9999 -9999 -9999 -9999 -9999 -9999 -9999 -9999 -9999 -9999 -9999 -9999 -9999 -9999 -9999 -9999 -9999 -9999 -9999 -9999 -9999 -9999 -9999 -9999 -9999 -9999 -9999 -9999 -9999 -9999 -9999 -9999 -9999 -9999 -9999 -9999 -9999 -9999 -9999 -9999 -9999 -9999 -9999 -9999 -9999 -9999 -9999 -9999 -9999 -9999 -9999 -9999 -9999 -9999 -9999 -9999 -9999 -9999 -9999 -9999 -9999 -9999 -9999 -9999
228 284 357 432 476 518 542 524 511 493 467 431 371 327 334 370 386 399 438 483 496 473 440 402 382 389 417 436 454 476 491 510 531 535 496 434 403 404 403 392 380 369 367 367 341 305 290 290 290 289 287 284 279 275 279 285 293 294 286 280 277 276 272 269 267 265 265 277 285 284 278 282 287 284 285 289 291 295 289 279 272 271 272 271 268 268 274 282 287 289 289 286 281 278 276 275 276 279 281 283 287 289 287 286 290 293 294 296 307 328 350 365 367 363 367 373 371 358 342 350 378 394 391 377 376 376 386 397 392 363 320 334 372 379 370 360 375 387 359 327 325 332 332 346 358 363 360 373 393 404 408 411 406 398 399 404 407 421 389 313 303 366 425 452 442 424 397 353 353 360 363 372 358 341 349 347 362 390 390 416 444 442 420 438 481 523 554 549 539 539 518 524 555 559 558 555 537 491 461 466 478 472 494 542 568 522 480 490 538 594 636 665 664 670 665 648 634 593 537 539 560 554 531 522 525 515 517 548 592 627 652 670 656 616 621 659 686 717 759 795 794 763 724 676 642 618 591 563 579 627 655 695 716 697 751 834 813 723 698 685 644 604 561 502 472 499 523 531 542 556 558 548 556 567 563 580 598 -9999 -9999 -9999 -9999 -9999 -9999 631 611 593 598 604 616 613 604 587 565 539 530 550 564 558 570 -9999 -9999 -9999 487 482 477 464 451 448 446 450 455 455 448 448 455 478 490 488 505 489 463 468 475 486 513 567 639 673 -9999 -9999 -9999 -9999 -9999 -9999 -9999 -9999 -9999 -9999 -9999 -9999 -9999 -9999 -9999 -9999 -9999 -9999 -9999 -9999 -9999 -9999 -9999 -9999 -9999 -9999 -9999 -9999 -9999 -9999 -9999 -9999 -9999 -9999 -9999 -9999 -9999 -9999 -9999 -9999 -9999 -9999 -9999 -9999 -9999 -9999 -9999 -9999 -9999 -9999 -9999 -9999 -9999 -9999 -9999 -9999 -9999 -9999 -9999 -9999 -9999 -9999 -9999 -9999 -9999 -9999 -9999 -9999 -9999 -9999 -9999 -9999 -9999 -9999 -9999 -9999 -9999 -9999 -9999 -9999 -9999 -9999 -9999 -9999 -9999 -9999 -9999 -9999 -9999 -9999 -9999 -9999 -9999 -9999 -9999 -9999 -9999 -9999 -9999 -9999 -9999 -9999 -9999 -9999 -9999 -9999 -9999 -9999 -9999 -9999 -9999 -9999 -9999 -9999 -9999 -9999 -9999 -9999 -9999 -9999 -9999 -9999 -9999 -9999 -9999 -9999 -9999 -9999 -9999 -9999 -9999 -9999 -9999 -9999 -9999 -9999 -9999 -9999 -9999 -9999 -9999 -9999 -9999 -9999 -9999 -9999 -9999 -9999 -9999 -9999 -9999 -9999 -9999 -9999 -9999 -9999 -9999 -9999 -9999 -9999 -9999 -9999 -9999 -9999 -9999 -9999 -9999 -9999 -9999 -9999 -9999 -9999 -9999 -9999 -9999 -9999 -9999 -9999 -9999 -9999 -9999 -9999 -9999 -9999 -9999 -9999 -9999 -9999 -9999 -9999 -9999 -9999 -9999 -9999 -9999 -9999 -9999 -9999 -9999 -9999 -9999 -9999 -9999 -9999 -9999 -9999 -9999 -9999 -9999 -9999 -9999 -9999 -9999 -9999 -9999 -9999 -9999 -9999 -9999 -9999 -9999 -9999 -9999 -9999 -9999 -9999 -9999 -9999 -9999 -9999 -9999 -9999 -9999 -9999 -9999 -9999 -9999 -9999 -9999 -9999 -9999 -9999 -9999 -9999 -9999 -9999 -9999 -9999 -9999 -9999 -9999 -9999 -9999 -9999 -9999 -9999 -9999 -9999 -9999 -9999 -9999 -9999 -9999 -9999 -9999 -9999 -9999 -9999
166 190 256 376 472 534 586 582 554 536 508 462 399 359 347 344 352 372 407 461 500 511 485 435 407 399 402 419 444 471 479 488 506 525 506 441 386 365 359 352 343 340 350 349 330 308 297 301 312 320 312 295 281 274 274 277 280 280 275 271 267 265 264 262 262 264 263 263 265 267 266 267 267 274 290 299 313 327 317 301 290 281 278 276 276 276 273 275 281 283 282 277 274 273 272 273 275 278 282 289 304 310 300 294 303 314 309 298 300 316 329 340 346 351 365 383 387 381 361 340 358 388 388 371 363 369 384 388 376 360 325 320 334 330 321 317 327 338 332 331 357 375 366 348 336 336 356 382 392 392 390 391 390 379 377 386 390 403 376 313 339 443 484 474 465 439 408 393 410 421 425 427 405 378 370 353 398 463 449 410 398 396 398 420 472 521 536 526 527 541 518 515 524 514 501 479 450 425 416 414 423 430 446 487 533 518 490 507 535 574 608 616 615 627 614 587 571 547 510 501 518 519 506 506 516 508 518 560 599 624 634 629 631 602 600 635 674 697 722 763 768 728 684 649 627 607 586 562 566 615 626 646 679 660 692 768 766 690 650 636 607 598 573 510 472 489 514 529 555 581 582 570 564 568 552 534 -9999 -9999 -9999 -9999 -9999 -9999 -9999 627 603 581 593 593 595 593 581 571 560 536 522 534 546 554 571 587 549 504 493 485 475 468 459 453 444 437 435 436 436 436 436 441 450 467 486 478 455 449 456 463 485 537 600 616 629 -9999 -9999 -9999 -9999 -9999 -9999 -9999 -9999 -9999 -9999 -9999 -9999 -9999 -9999 -9999 -9999 -9999 -9999 -9999 -9999 -9999 -9999 -9999 -9999 -9999 -9999 -9999 -9999 -9999 -9999 -9999 -9999 -9999 -9999 -9999 -9999 -9999 -9999 -9999 -9999 -9999 -9999 -9999 -9999 -9999 -9999 -9999 -9999 -9999 -9999 -9999 -9999 -9999 -9999 -9999 -9999 -9999 -9999 -9999 -9999 -9999 -9999 -9999 -9999 -9999 -9999 -9999 -9999 -9999 -9999 -9999 -9999 -9999 -9999 -9999 -9999 -9999 -9999 -9999 -9999 -9999 -9999 -9999 -9999 -9999 -9999 -9999 -9999 -9999 -9999 -9999 -9999 -9999 -9999 -9999 -9999 -9999 -9999 -9999 -9999 -9999 -9999 -9999 -9999 -9999 -9999 -9999 -9999 -9999 -9999 -9999 -9999 -9999 -9999 -9999 -9999 -9999 -9999 -9999 -9999 -9999 -9999 -9999 -9999 -9999 -9999 -9999 -9999 -9999 -9999 -9999 -9999 -9999 -9999 -9999 -9999 -9999 -9999 -9999 -9999 -9999 -9999 -9999 -9999 -9999 -9999 -9999 -9999 -9999 -9999 -9999 -9999 -9999 -9999 -9999 -9999 -9999 -9999 -9999 -9999 -9999 -9999 -9999 -9999 -9999 -9999 -9999 -9999 -9999 -9999 -9999 -9999 -9999 -9999 -9999 -9999 -9999 -9999 -9999 -9999 -9999 -9999 -9999 -9999 -9999 -9999 -9999 -9999 -9999 -9999 -9999 -9999 -9999 -9999 -9999 -9999 -9999 -9999 -9999 -9999 -9999 -9999 -9999 -9999 -9999 -9999 -9999 -9999 -9999 -9999 -9999 -9999 -9999 -9999 -9999 -9999 -9999 -9999 -9999 -9999 -9999 -9999 -9999 -9999 -9999 -9999 -9999 -9999 -9999 -9999 -9999 -9999 -9999 -9999 -9999 -9999 -9999 -9999 -9999 -9999 -9999 -9999 -9999 -9999 -9999 -9999 -9999 -9999 -9999 -9999 -9999 -9999 -9999 -9999 -9999 -9999 -9999 -9999 -9999 -9999 -9999 -9999 -9999 -9999 -9999 -9999 -9999
190 170 198 296 381 466 571 621 618 595 540 468 412 397 404 403 387 388 414 447 481 509 502 467 439 427 428 433 448 455 448 464 493 512 502 443 381 347 332 323 316 328 375 386 356 333 325 326 343 366 365 336 303 281 271 270 270 270 267 264 262 262 260 258 258 259 261 258 254 253 254 254 254 258 266 277 296 318 331 327 309 295 293 293 293 295 286 273 274 278 276 274 279 278 275 275 277 279 283 291 310 326 323 314 315 325 322 305 298 303 309 317 326 342 365 381 387 381 369 346 355 378 378 364 361 385 400 385 366 335 303 292 300 309 318 323 319 315 331 358 384 393 387 379 366 363 373 382 383 375 368 365 371 369 358 360 371 375 328 311 376 454 474 458 444 436 439 447 470 477 461 445 423 411 418 384 412 479 482 453 421 431 458 470 499 528 517 498 513 528 500 485 486 471 444 418 415 425 432 433 428 429 430 432 449 457 480 513 531 554 572 562 562 575 567 544 533 521 499 486 491 495 492 491 493 490 509 545 568 576 571 560 568 569 600 635 656 656 671 717 750 745 719 697 684 657 608 563 540 577 595 589 611 612 629 679 688 644 595 574 565 571 567 517 469 487 509 513 536 573 593 598 587 577 -9999 -9999 -9999 -9999 -9999 -9999 -9999 -9999 -9999 619 596 585 590 588 577 565 548 542 551 535 534 539 539 556 566 579 554 509 491 488 479 468 465 465 456 444 436 436 448 460 466 452 433 435 442 444 442 441 445 451 464 497 544 557 570 609 641 -9999 -9999 -9999 -9999 -9999 -9999 -9999 -9999 -9999 -9999 -9999 -9999 -9999 -9999 -9999 -9999 -9999 -9999 -9999 -9999 -9999 -9999 -9999 -9999 -9999 -9999 -9999 -9999 -9999 -9999 -9999 -9999 -9999 -9999 -9999 -9999 -9999 -9999 -9999 -9999 -9999 -9999 -9999 -9999 -9999 -9999 -9999 -9999 -9999 -9999 -9999 -9999 -9999 -9999 -9999 -9999 -9999 -9999 -9999 -9999 -9999 -9999 -9999 -9999 -9999 -9999 -9999 -9999 -9999 -9999 -9999 -9999 -9999 -9999 -9999 -9999 -9999 -9999 -9999 -9999 -9999 -9999 -9999 -9999 -9999 -9999 -9999 -9999 -9999 -9999 -9999 -9999 -9999 -9999 -9999 -9999 -9999 -9999 -9999 -9999 -9999 -9999 -9999 -9999 -9999 -9999 -9999 -9999 -9999 -9999 -9999 -9999 -9999 -9999 -9999 -9999 -9999 -9999 -9999 -9999 -9999 -9999 -9999 -9999 -9999 -9999 -9999 -9999 -9999 -9999 -9999 -9999 -9999 -9999 -9999 -9999 -9999 -9999 -9999 -9999 -9999 -9999 -9999 -9999 -9999 -9999 -9999 -9999 -9999 -9999 -9999 -9999 -9999 -9999 -9999 -9999 -9999 -9999 -9999 -9999 -9999 -9999 -9999 -9999 -9999 -9999 -9999 -9999 -9999 -9999 -9999 -9999 -9999 -9999 -9999 -9999 -9999 -9999 -9999 -9999 -9999 -9999 -9999 -9999 -9999 -9999 -9999 -9999 -9999 -9999 -9999 -9999 -9999 -9999 -9999 -9999 -9999 -9999 -9999 -9999 -9999 -9999 -9999 -9999 -9999 -9999 -9999 -9999 -9999 -9999 -9999 -9999 -9999 -9999 -9999 -9999 -9999 -9999 -9999 -9999 -9999 -9999 -9999 -9999 -9999 -9999 -9999 -9999 -9999 -9999 -9999 -9999 -9999 -9999 -9999 -9999 -9999 -9999 -9999 -9999 -9999 -9999 -9999 -9999 -9999 -9999 -9999 -9999 -9999 -9999 -9999 -9999 -9999 -9999 -9999 -9999 -9999 -9999 -9999 -9999 -9999 -9999 -9999 -9999 -9999
341 241 189 257 373 456 533 604 625 587 516 454 439 454 463 459 432 426 447 461 470 479 477 471 479 482 476 461 448 441 430 445 490 508 491 437 378 344 325 313 304 315 367 404 385 363 358 356 370 404 408 365 324 294 275 270 271 270 267 266 265 263 262 260 259 258 257 255 255 254 254 252 252 254 258 262 275 305 336 333 316 313 315 320 321 317 310 296 280 273 272 274 277 276 275 276 276 278 284 295 313 329 337 337 337 339 331 312 302 303 312 320 325 337 354 369 381 380 365 338 345 370 364 353 368 392 397 380 349 307 301 323 352 370 376 377 372 365 371 385 391 381 376 380 374 366 362 362 359 350 341 337 348 365 358 342 343 325 302 330 392 435 438 439 435 445 487 500 494 483 466 466 463 451 440 399 407 435 431 440 449 458 485 514 537 540 508 483 504 509 475 451 451 441 411 402 418 423 435 454 461 480 486 462 439 441 457 474 494 519 538 534 528 538 537 518 502 495 486 475 471 474 479 482 481 473 475 495 514 529 531 522 528 539 563 583 606 612 626 655 678 706 720 705 680 664 621 568 531 543 563 549 545 556 563 583 604 588 556 539 540 564 565 524 474 480 495 502 524 551 593 626 620 -9999 -9999 -9999 -9999 -9999 -9999 -9999 -9999 -9999 650 630 605 621 633 630 613 568 530 518 519 518 539 540 539 552 552 559 563 534 500 483 479 468 456 451 450 454 453 450 458 474 480 474 461 452 442 426 424 430 437 446 454 471 498 520 546 574 596 624 -9999 -9999 -9999 -9999 -9999 -9999 -9999 -9999 -9999 -9999 -9999 -9999 -9999 -9999 -9999 -9999 -9999 -9999 -9999 -9999 -9999 -9999 -9999 -9999 -9999 -9999 -9999 -9999 -9999 -9999 -9999 -9999 -9999 -9999 -9999 -9999 -9999 -9999 -9999 -9999 -9999 -9999 -9999 -9999 -9999 -9999 -9999 -9999 -9999 -9999 -9999 -9999 -9999 -9999 -9999 -9999 -9999 -9999 -9999 -9999 -9999 -9999 -9999 -9999 -9999 -9999 -9999 -9999 -9999 -9999 -9999 -9999 -9999 -9999 -9999 -9999 -9999 -9999 -9999 -9999 -9999 -9999 -9999 -9999 -9999 -9999 -9999 -9999 -9999 -9999 -9999 -9999 -9999 -9999 -9999 -9999 -9999 -9999 -9999 -9999 -9999 -9999 -9999 -9999 -9999 -9999 -9999 -9999 -9999 -9999 -9999 -9999 -9999 -9999 -9999 -9999 -9999 -9999 -9999 -9999 -9999 -9999 -9999 -9999 -9999 -9999 -9999 -9999 -9999 -9999 -9999 -9999 -9999 -9999 -9999 -9999 -9999 -9999 -9999 -9999 -9999 -9999 -9999 -9999 -9999 -9999 -9999 -9999 -9999 -9999 -9999 -9999 -9999 -9999 -9999 -9999 -9999 -9999 -9999 -9999 -9999 -9999 -9999 -9999 -9999 -9999 -9999 -9999 -9999 -9999 -9999 -9999 -9999 -9999 -9999 -9999 -9999 -9999 -9999 -9999 -9999 -9999 -9999 -9999 -9999 -9999 -9999 -9999 -9999 -9999 -9999 -9999 -9999 -9999 -9999 -9999 -9999 -9999 -9999 -9999 -9999 -9999 -9999 -9999 -9999 -9999 -9999 -9999 -9999 -9999 -9999 -9999 -9999 -9999 -9999 -9999 -9999 -9999 -9999 -9999 -9999 -9999 -9999 -9999 -9999 -9999 -9999 -9999 -9999 -9999 -9999 -9999 -9999 -9999 -9999 -9999 -9999 -9999 -9999 -9999 -9999 -9999 -9999 -9999 -9999 -9999 -9999 -9999 -9999 -9999 -9999 -9999 -9999 -9999 -9999 -9999 -9999 -9999 -9999 -9999 -9999 -9999 -9999 -9999
437 290 203 299 455 537 557 592 598 541 481 469 489 503 485 457 447 456 456 457 453 435 426 442 481 492 483 476 455 427 404 414 465 493 466 411 361 333 319 308 298 300 337 388 390 368 365 362 361 382 384 351 322 303 288 283 286 285 282 278 272 267 267 268 270 271 266 262 262 263 262 259 255 255 256 259 266 287 308 314 322 343 350 346 346 342 335 325 308 297 288 276 273 274 274 275 276 276 279 285 300 313 320 330 341 349 342 325 314 313 321 329 336 344 352 362 369 369 372 349 345 369 363 356 379 398 396 379 343 302 326 363 372 377 379 375 369 365 365 370 372 360 355 361 355 342 334 331 330 326 321 319 324 339 348 332 320 299 284 282 313 369 386 402 427 434 470 524 527 496 477 480 484 476 464 425 385 372 367 388 415 426 451 496 532 531 499 465 459 443 430 416 400 397 401 408 411 409 414 435 465 504 520 500 469 468 483 500 525 536 537 528 511 516 526 519 499 479 474 474 465 465 477 481 479 470 463 471 486 497 498 497 505 520 532 538 554 561 578 597 619 649 664 659 625 616 614 578 535 519 536 534 518 534 546 540 549 544 529 528 554 598 592 541 481 472 486 494 507 531 573 609 -9999 -9999 -9999 -9999 -9999 -9999 -9999 -9999 -9999 -9999 647 633 622 642 638 624 624 591 544 535 539 526 522 519 527 537 537 546 566 570 532 491 472 463 456 452 453 459 462 459 463 463 461 465 476 487 488 457 421 414 425 436 448 460 474 495 533 551 557 592 636 -9999 -9999 -9999 -9999 -9999 -9999 -9999 -9999 -9999 -9999 -9999 -9999 -9999 -9999 -9999 -9999 -9999 -9999 -9999 -9999 -9999 -9999 -9999 -9999 -9999 -9999 -9999 -9999 -9999 -9999 -9999 -9999 -9999 -9999 -9999 -9999 -9999 -9999 -9999 -9999 -9999 -9999 -9999 -9999 -9999 -9999 -9999 -9999 -9999 -9999 -9999 -9999 -9999 -9999 -9999 -9999 -9999 -9999 -9999 -9999 -9999 -9999 -9999 -9999 -9999 -9999 -9999 -9999 -9999 -9999 -9999 -9999 -9999 -9999 -9999 -9999 -9999 -9999 -9999 -9999 -9999 -9999 -9999 -9999 -9999 -9999 -9999 -9999 -9999 -9999 -9999 -9999 -9999 -9999 -9999 -9999 -9999 -9999 -9999 -9999 -9999 -9999 -9999 -9999 -9999 -9999 -9999 -9999 -9999 -9999 -9999 -9999 -9999 -9999 -9999 -9999 -9999 -9999 -9999 -9999 -9999 -9999 -9999 -9999 -9999 -9999 -9999 -9999 -9999 -9999 -9999 -9999 -9999 -9999 -9999 -9999 -9999 -9999 -9999 -9999 -9999 -9999 -9999 -9999 -9999 -9999 -9999 -9999 -9999 -9999 -9999 -9999 -9999 -9999 -9999 -9999 -9999 -9999 -9999 -9999 -9999 -9999 -9999 -9999 -9999 -9999 -9999 -9999 -9999 -9999 -9999 -9999 -9999 -9999 -9999 -9999 -9999 -9999 -9999 -9999 -9999 -9999 -9999 -9999 -9999 -9999 -9999 -9999 -9999 -9999 -9999 -9999 -9999 -9999 -9999 -9999 -9999 -9999 -9999 -9999 -9999 -9999 -9999 -9999 -9999 -9999 -9999 -9999 -9999 -9999 -9999 -9999 -9999 -9999 -9999 -9999 -9999 -9999 -9999 -9999 -9999 -9999 -9999 -9999 -9999 -9999 -9999 -9999 -9999 -9999 -9999 -9999 -9999 -9999 -9999 -9999 -9999 -9999 -9999 -9999 -9999 -9999 -9999 -9999 -9999 -9999 -9999 -9999 -9999 -9999 -9999 -9999 -9999 -9999 -9999 -9999 -9999 -9999 -9999 -9999 -9999 -9999 -9999
401 270 215 324 433 494 536 586 594 547 501 489 496 494 470 452 460 474 449 427 423 399 397 434 473 469 450 455 447 423 399 398 424 444 425 383 347 319 303 298 295 291 312 345 352 343 352 357 346 343 342 333 319 312 316 323 318 307 308 306 293 281 276 284 296 299 290 282 282 288 294 286 269 260 256 255 257 263 277 300 324 354 372 369 358 345 338 331 320 321 315 293 276 272 273 275 276 277 279 281 287 296 302 312 328 345 352 347 341 334 332 336 345 346 345 351 357 355 364 362 340 353 358 350 367 384 392 385 347 302 302 325 339 352 360 362 356 349 345 346 349 343 334 332 328 320 314 313 312 311 311 310 312 319 331 323 322 305 298 293 292 323 340 370 410 414 427 479 525 523 505 495 487 480 468 445 390 347 331 343 381 404 423 478 515 503 473 439 407 392 388 387 385 407 445 464 459 442 420 417 437 475 497 488 468 465 474 493 518 528 524 520 501 487 496 509 504 482 471 476 467 461 472 476 481 476 464 476 499 507 487 475 487 503 510 516 528 528 539 551 562 582 601 594 576 561 572 570 546 519 508 506 497 503 524 525 527 522 524 553 590 607 580 527 471 462 490 481 473 512 551 571 601 -9999 -9999 -9999 -9999 -9999 -9999 -9999 521 569 635 637 620 632 630 610 611 605 579 583 588 573 547 520 522 524 528 546 555 561 550 515 483 469 468 466 463 464 462 462 469 465 452 445 447 455 470 466 432 408 413 428 445 455 459 472 497 517 541 580 596 611 -9999 -9999 -9999 -9999 -9999 -9999 -9999 -9999 -9999 -9999 -9999 -9999 -9999 -9999 -9999 -9999 -9999 -9999 -9999 -9999 -9999 -9999 -9999 -9999 -9999 -9999 -9999 -9999 -9999 -9999 -9999 -9999 -9999 -9999 -9999 -9999 -9999 -9999 -9999 -9999 -9999 -9999 -9999 -9999 -9999 -9999 -9999 -9999 -9999 -9999 -9999 -9999 -9999 -9999 -9999 -9999 -9999 -9999 -9999 -9999 -9999 -9999 -9999 -9999 -9999 -9999 -9999 -9999 -9999 -9999 -9999 -9999 -9999 -9999 -9999 -9999 -9999 -9999 -9999 -9999 -9999 -9999 -9999 -9999 -9999 -9999 -9999 -9999 -9999 -9999 -9999 -9999 -9999 -9999 -9999 -9999 -9999 -9999 -9999 -9999 -9999 -9999 -9999 -9999 -9999 -9999 -9999 -9999 -9999 -9999 -9999 -9999 -9999 -9999 -9999 -9999 -9999 -9999 -9999 -9999 -9999 -9999 -9999 -9999 -9999 -9999 -9999 -9999 -9999 -9999 -9999 -9999 -9999 -9999 -9999 -9999 -9999 -9999 -9999 -9999 -9999 -9999 -9999 -9999 -9999 -9999 -9999 -9999 -9999 -9999 -9999 -9999 -9999 -9999 -9999 -9999 -9999 -9999 -9999 -9999 -9999 -9999 -9999 -9999 -9999 -9999 -9999 -9999 -9999 -9999 -9999 -9999 -9999 -9999 -9999 -9999 -9999 -9999 -9999 -9999 -9999 -9999 -9999 -9999 -9999 -9999 -9999 -9999 -9999 -9999 -9999 -9999 -9999 -9999 -9999 -9999 -9999 -9999 -9999 -9999 -9999 -9999 -9999 -9999 -9999 -9999 -9999 -9999 -9999 -9999 -9999 -9999 -9999 -9999 -9999 -9999 -9999 -9999 -9999 -9999 -9999 -9999 -9999 -9999 -9999 -9999 -9999 -9999 -9999 -9999 -9999 -9999 -9999 -9999 -9999 -9999 -9999 -9999 -9999 -9999 -9999 -9999 -9999 -9999 -9999 -9999 -9999 -9999 -9999 -9999 -9999 -9999 -9999 -9999 -9999 -9999 -9999 -9999 -9999 -9999 -9999 -9999
337 233 218 305 400 493 532 548 562 566 554 526 497 474 438 414 417 418 406 395 413 391 378 403 424 426 420 444 465 451 423 397 381 384 373 340 316 304 292 281 280 277 285 301 311 313 327 347 350 340 335 334 330 333 359 396 385 348 327 314 305 297 288 285 288 294 298 301 299 301 307 303 285 268 258 255 255 257 263 276 298 322 347 357 358 350 337 328 321 313 310 301 283 275 274 275 277 278 280 281 284 289 298 313 333 351 362 366 369 364 355 349 352 352 344 340 342 346 346 341 331 343 349 350 370 373 373 374 350 309 302 330 349 348 349 350 345 336 329 327 330 325 314 309 307 303 301 304 301 298 302 303 301 303 309 304 312 323 324 306 308 333 347 358 390 400 402 433 488 531 538 507 474 457 441 422 396 369 342 329 356 381 425 473 488 473 440 408 392 411 421 418 421 451 511 539 512 470 435 422 441 477 495 484 467 468 477 489 504 511 507 505 495 476 478 496 491 474 463 462 460 456 467 472 477 476 463 478 500 507 485 465 470 486 491 493 503 511 523 530 525 529 545 540 531 524 518 520 526 523 506 490 481 480 488 499 508 510 527 546 574 566 532 506 469 445 465 467 470 506 534 545 562 540 500 477 -9999 -9999 -9999 500 505 558 632 641 612 616 632 631 626 612 600 597 580 592 586 536 526 525 516 524 538 545 542 528 498 492 506 503 485 475 471 468 464 462 450 435 430 431 441 451 442 413 405 422 437 443 445 451 463 480 504 536 546 559 615 -9999 -9999 -9999 -9999 -9999 -9999 -9999 -9999 -9999 -9999 -9999 -9999 -9999 -9999 -9999 -9999 -9999 -9999 -9999 -9999 -9999 -9999 -9999 -9999 -9999 -9999 -9999 -9999 -9999 -9999 -9999 -9999 -9999 -9999 -9999 -9999 -9999 -9999 -9999 -9999 -9999 -9999 -9999 -9999 -9999 -9999 -9999 -9999 -9999 -9999 -9999 -9999 -9999 -9999 -9999 -9999 -9999 -9999 -9999 -9999 -9999 -9999 -9999 -9999 -9999 -9999 -9999 -9999 -9999 -9999 -9999 -9999 -9999 -9999 -9999 -9999 -9999 -9999 -9999 -9999 -9999 -9999 -9999 -9999 -9999 -9999 -9999 -9999 -9999 -9999 -9999 -9999 -9999 -9999 -9999 -9999 -9999 -9999 -9999 -9999 -9999 -9999 -9999 -9999 -9999 -9999 -9999 -9999 -9999 -9999 -9999 -9999 -9999 -9999 -9999 -9999 -9999 -9999 -9999 -9999 -9999 -9999 -9999 -9999 -9999 -9999 -9999 -9999 -9999 -9999 -9999 -9999 -9999 -9999 -9999 -9999 -9999 -9999 -9999 -9999 -9999 -9999 -9999 -9999 -9999 -9999 -9999 -9999 -9999 -9999 -9999 -9999 -9999 -9999 -9999 -9999 -9999 -9999 -9999 -9999 -9999 -9999 -9999 -9999 -9999 -9999 -9999 -9999 -9999 -9999 -9999 -9999 -9999 -9999 -9999 -9999 -9999 -9999 -9999 -9999 -9999 -9999 -9999 -9999 -9999 -9999 -9999 -9999 -9999 -9999 -9999 -9999 -9999 -9999 -9999 -9999 -9999 -9999 -9999 -9999 -9999 -9999 -9999 -9999 -9999 -9999 -9999 -9999 -9999 -9999 -9999 -9999 -9999 -9999 -9999 -9999 -9999 -9999 -9999 -9999 -9999 -9999 -9999 -9999 -9999 -9999 -9999 -9999 -9999 -9999 -9999 -9999 -9999 -9999 -9999 -9999 -9999 -9999 -9999 -9999 -9999 -9999 -9999 -9999 -9999 -9999 -9999 -9999 -9999 -9999 -9999 -9999 -9999 -9999 -9999 -9999 -9999 -9999 -9999 -9999 -9999
257 195 221 304 385 455 483 500 524 552 570 557 519 495 446 394 376 370 372 369 368 347 340 358 371 379 402 456 512 505 459 409 365 335 315 292 272 271 273 268 263 261 260 264 279 296 323 342 350 349 355 364 369 371 398 469 461 390 347 329 323 313 303 299 300 303 305 311 321 319 305 289 277 270 265 260 258 258 259 261 267 282 301 321 339 352 353 341 331 327 319 306 289 278 275 280 283 284 285 284 285 289 297 311 329 345 354 363 372 375 371 367 363 357 349 339 331 330 326 314 323 348 345 346 369 366 356 347 320 302 326 353 359 354 348 342 335 327 320 313 313 311 303 296 292 287 291 303 301 292 293 298 295 295 299 292 282 284 284 300 346 383 397 388 390 391 388 419 481 551 577 541 486 445 419 401 407 405 364 330 336 368 404 414 422 418 393 379 399 437 468 494 511 526 543 546 513 471 440 436 462 484 489 487 474 465 472 484 492 497 497 490 480 469 465 475 475 462 458 452 443 443 458 465 463 464 457 470 490 493 470 454 461 479 482 470 473 490 503 508 505 503 516 519 509 511 497 485 489 501 514 508 496 490 485 480 476 493 512 537 573 569 532 499 471 447 438 453 479 494 505 526 525 483 473 502 503 -9999 512 512 514 555 629 652 620 600 627 656 665 653 641 628 593 583 579 541 529 520 501 512 544 548 526 516 511 521 547 554 521 494 486 481 469 455 444 433 424 421 420 427 435 415 401 417 433 435 434 437 449 465 472 485 506 525 564 599 -9999 -9999 -9999 -9999 -9999 -9999 -9999 -9999 -9999 -9999 -9999 -9999 -9999 -9999 -9999 -9999 -9999 -9999 -9999 -9999 -9999 -9999 -9999 -9999 -9999 -9999 -9999 -9999 -9999 -9999 -9999 -9999 -9999 -9999 -9999 -9999 -9999 -9999 -9999 -9999 -9999 -9999 -9999 -9999 -9999 -9999 -9999 -9999 -9999 -9999 -9999 -9999 -9999 -9999 -9999 -9999 -9999 -9999 -9999 -9999 -9999 -9999 -9999 -9999 -9999 -9999 -9999 -9999 -9999 -9999 -9999 -9999 -9999 -9999 -9999 -9999 -9999 -9999 -9999 -9999 -9999 -9999 -9999 -9999 -9999 -9999 -9999 -9999 -9999 -9999 -9999 -9999 -9999 -9999 -9999 -9999 -9999 -9999 -9999 -9999 -9999 -9999 -9999 -9999 -9999 -9999 -9999 -9999 -9999 -9999 -9999 -9999 -9999 -9999 -9999 -9999 -9999 -9999 -9999 -9999 -9999 -9999 -9999 -9999 -9999 -9999 -9999 -9999 -9999 -9999 -9999 -9999 -9999 -9999 -9999 -9999 -9999 -9999 -9999 -9999 -9999 -9999 -9999 -9999 -9999 -9999 -9999 -9999 -9999 -9999 -9999 -9999 -9999 -9999 -9999 -9999 -9999 -9999 -9999 -9999 -9999 -9999 -9999 -9999 -9999 -9999 -9999 -9999 -9999 -9999 -9999 -9999 -9999 -9999 -9999 -9999 -9999 -9999 -9999 -9999 -9999 -9999 -9999 -9999 -9999 -9999 -9999 -9999 -9999 -9999 -9999 -9999 -9999 -9999 -9999 -9999 -9999 -9999 -9999 -9999 -9999 -9999 -9999 -9999 -9999 -9999 -9999 -9999 -9999 -9999 -9999 -9999 -9999 -9999 -9999 -9999 -9999 -9999 -9999 -9999 -9999 -9999 -9999 -9999 -9999 -9999 -9999 -9999 -9999 -9999 -9999 -9999 -9999 -9999 -9999 -9999 -9999 -9999 -9999 -9999 -9999 -9999 -9999 -9999 -9999 -9999 -9999 -9999 -9999 -9999 -9999 -9999 -9999 -9999 -9999 -9999 -9999 -9999 -9999 -9999
169 179 246 321 372 422 485 547 565 566 588 599 545 476 420 379 359 352 349 338 320 306 308 321 335 357 400 477 564 563 492 417 358 319 295 274 252 246 252 255 248 246 249 252 277 316 345 356 355 352 363 380 392 395 397 438 442 395 363 351 341 327 322 323 332 340 337 324 326 333 321 302 290 288 284 275 267 264 262 263 269 272 275 287 302 320 338 350 349 340 336 332 314 288 276 279 290 303 305 299 293 293 298 308 321 333 342 352 362 365 369 373 374 375 371 365 356 339 325 317 324 350 351 338 356 363 339 307 288 303 338 351 349 346 341 334 326 318 311 302 299 302 301 287 283 281 286 294 289 281 285 295 292 289 290 277 274 287 297 319 351 370 385 399 399 385 382 414 492 592 634 588 534 493 451 426 449 450 392 340 333 359 372 361 367 369 368 377 422 471 509 538 547 539 523 519 511 485 454 437 455 475 480 485 480 466 463 471 477 484 493 492 477 460 451 453 461 456 449 444 436 438 450 457 453 454 447 458 481 474 450 445 459 477 478 463 454 467 485 486 491 489 489 484 473 474 473 477 487 502 522 531 541 545 540 522 488 475 494 523 544 556 548 530 509 476 440 458 474 500 521 519 488 464 492 546 542 502 503 514 514 536 597 637 620 592 607 631 658 679 679 665 636 593 555 529 522 505 490 517 540 528 512 520 541 556 561 570 548 522 512 494 471 453 442 435 427 421 417 413 418 410 399 411 427 429 425 425 434 452 459 457 475 491 525 575 -9999 -9999 -9999 -9999 -9999 -9999 -9999 -9999 -9999 -9999 -9999 -9999 -9999 -9999 -9999 -9999 -9999 -9999 -9999 -9999 -9999 -9999 -9999 -9999 -9999 -9999 -9999 -9999 -9999 -9999 -9999 -9999 -9999 -9999 -9999 -9999 -9999 -9999 -9999 -9999 -9999 -9999 -9999 -9999 -9999 -9999 -9999 -9999 -9999 -9999 -9999 -9999 -9999 -9999 -9999 -9999 -9999 -9999 -9999 -9999 -9999 -9999 -9999 -9999 -9999 -9999 -9999 -9999 -9999 -9999 -9999 -9999 -9999 -9999 -9999 -9999 -9999 -9999 -9999 -9999 -9999 -9999 -9999 -9999 -9999 -9999 -9999 -9999 -9999 -9999 -9999 -9999 -9999 -9999 -9999 -9999 -9999 -9999 -9999 -9999 -9999 -9999 -9999 -9999 -9999 -9999 -9999 -9999 -9999 -9999 -9999 -9999 -9999 -9999 -9999 -9999 -9999 -9999 -9999 -9999 -9999 -9999 -9999 -9999 -9999 -9999 -9999 -9999 -9999 -9999 -9999 -9999 -9999 -9999 -9999 -9999 -9999 -9999 -9999 -9999 -9999 -9999 -9999 -9999 -9999 -9999 -9999 -9999 -9999 -9999 -9999 -9999 -9999 -9999 -9999 -9999 -9999 -9999 -9999 -9999 -9999 -9999 -9999 -9999 -9999 -9999 -9999 -9999 -9999 -9999 -9999 -9999 -9999 -9999 -9999 -9999 -9999 -9999 -9999 -9999 -9999 -9999 -9999 -9999 -9999 -9999 -9999 -9999 -9999 -9999 -9999 -9999 -9999 -9999 -9999 -9999 -9999 -9999 -9999 -9999 -9999 -9999 -9999 -9999 -9999 -9999 -9999 -9999 -9999 -9999 -9999 -9999 -9999 -9999 -9999 -9999 -9999 -9999 -9999 -9999 -9999 -9999 -9999 -9999 -9999 -9999 -9999 -9999 -9999 -9999 -9999 -9999 -9999 -9999 -9999 -9999 -9999 -9999 -9999 -9999 -9999 -9999 -9999 -9999 -9999 -9999 -9999 -9999 -9999 -9999 -9999 -9999 -9999 -9999 -9999 -9999 -9999 -9999 -9999 -9999
182 211 298 401 473 518 541 578 601 608 627 636 585 494 422 374 349 358 360 328 299 290 292 306 330 368 416 484 572 575 496 417 360 315 285 273 255 237 235 240 238 235 240 250 294 345 355 360 364 362 368 382 401 404 403 401 392 373 353 339 334 329 327 330 344 350 346 334 322 324 329 331 325 313 307 301 292 283 270 262 269 283 277 270 280 295 310 326 332 336 354 354 331 300 279 279 306 346 364 346 319 305 305 311 320 333 343 350 355 355 360 364 369 376 379 382 382 370 343 331 323 320 346 340 340 350 320 283 290 320 340 343 336 332 328 321 315 307 302 290 280 281 279 271 272 275 277 277 273 271 277 283 281 279 277 272 291 318 317 316 336 348 365 396 407 385 377 418 496 606 676 648 598 557 517 480 475 478 430 370 366 375 377 377 371 383 386 389 435 496 521 524 520 510 499 491 487 479 460 441 448 465 469 471 476 471 463 463 466 474 485 491 481 461 451 446 442 442 441 433 433 445 449 448 443 445 439 451 473 461 436 436 452 469 474 461 450 463 469 463 472 473 471 457 445 450 476 511 516 514 528 543 551 539 522 511 492 468 483 503 499 510 524 511 487 463 437 446 459 490 494 467 448 459 494 554 578 534 514 531 528 535 583 632 625 593 580 593 635 682 692 674 645 639 640 618 576 543 505 498 500 504 530 563 598 615 597 582 570 567 559 519 479 456 442 434 424 415 412 410 407 401 393 402 417 421 417 415 421 432 442 440 442 466 508 541 534 -9999 -9999 -9999 -9999 -9999 -9999 -9999 -9999 -9999 -9999 -9999 -9999 -9999 -9999 -9999 -9999 -9999 -9999 -9999 -9999 -9999 -9999 -9999 -9999 -9999 -9999 -9999 -9999 -9999 -9999 -9999 -9999 -9999 -9999 -9999 -9999 -9999 -9999 -9999 -9999 -9999 -9999 -9999 -9999 -9999 -9999 -9999 -9999 -9999 -9999 -9999 -9999 -9999 -9999 -9999 -9999 -9999 -9999 -9999 -9999 -9999 -9999 -9999 -9999 -9999 -9999 -9999 -9999 -9999 -9999 -9999 -9999 -9999 -9999 -9999 -9999 -9999 -9999 -9999 -9999 -9999 -9999 -9999 -9999 -9999 -9999 -9999 -9999 -9999 -9999 -9999 -9999 -9999 -9999 -9999 -9999 -9999 -9999 -9999 -9999 -9999 -9999 -9999 -9999 -9999 -9999 -9999 -9999 -9999 -9999 -9999 -9999 -9999 -9999 -9999 -9999 -9999 -9999 -9999 -9999 -9999 -9999 -9999 -9999 -9999 -9999 -9999 -9999 -9999 -9999 -9999 -9999 -9999 -9999 -9999 -9999 -9999 -9999 -9999 -9999 -9999 -9999 -9999 -9999 -9999 -9999 -9999 -9999 -9999 -9999 -9999 -9999 -9999 -9999 -9999 -9999 -9999 -9999 -9999 -9999 -9999 -9999 -9999 -9999 -9999 -9999 -9999 -9999 -9999 -9999 -9999 -9999 -9999 -9999 -9999 -9999 -9999 -9999 -9999 -9999 -9999 -9999 -9999 -9999 -9999 -9999 -9999 -9999 -9999 -9999 -9999 -9999 -9999 -9999 -9999 -9999 -9999 -9999 -9999 -9999 -9999 -9999 -9999 -9999 -9999 -9999 -9999 -9999 -9999 -9999 -9999 -9999 -9999 -9999 -9999 -9999 -9999 -9999 -9999 -9999 -9999 -9999 -9999 -9999 -9999 -9999 -9999 -9999 -9999 -9999 -9999 -9999 -9999 -9999 -9999 -9999 -9999 -9999 -9999 -9999 -9999 -9999 -9999 -9999 -9999 -9999 -9999 -9999 -9999 -9999 -9999 -9999 -9999 -9999 -9999 -9999 -9999 -9999 -9999
251 243 271 367 472 516 533 569 590 591 598 614 611 535 438 377 340 337 339 311 286 280 290 320 361 408 433 457 502 512 468 410 361 317 284 269 259 239 227 228 230 235 242 265 300 336 364 375 378 378 381 393 416 425 415 399 384 372 356 339 339 345 332 321 335 346 342 331 319 317 344 368 371 355 337 331 321 304 284 269 267 276 273 268 290 311 304 292 291 301 330 338 322 302 282 279 297 342 381 376 347 325 319 321 325 331 336 340 343 339 343 359 371 374 375 378 383 383 365 333 331 321 328 335 332 341 312 291 319 339 335 329 325 318 311 306 301 295 288 276 267 263 261 259 260 261 261 262 261 261 264 268 268 269 265 270 291 304 294 294 312 326 350 376 378 365 373 415 475 561 641 667 637 591 552 518 503 498 458 393 374 380 389 405 408 426 436 418 437 492 501 488 477 465 464 465 465 469 470 457 446 455 463 469 480 479 470 466 465 471 483 488 481 467 457 451 444 439 438 429 437 461 466 450 436 435 429 433 459 461 438 430 437 450 457 444 441 461 457 443 450 451 450 444 439 455 492 509 496 495 499 501 497 484 472 463 465 459 456 467 467 475 503 500 469 448 431 426 436 463 460 439 447 493 543 590 607 562 518 529 546 554 603 650 643 609 577 585 627 668 679 665 661 697 724 706 654 585 513 481 485 513 553 598 640 661 640 596 576 592 595 542 487 458 441 430 422 414 408 407 404 396 389 399 416 418 411 411 422 428 428 427 423 437 464 484 493 -9999 -9999 -9999 -9999 -9999 -9999 -9999 -9999 -9999 -9999 -9999 -9999 -9999 -9999 -9999 -9999 -9999 -9999 -9999 -9999 -9999 -9999 -9999 -9999 -9999 -9999 -9999 -9999 -9999 -9999 -9999 -9999 -9999 -9999 -9999 -9999 -9999 -9999 -9999 -9999 -9999 -9999 -9999 -9999 -9999 -9999 -9999 -9999 -9999 -9999 -9999 -9999 -9999 -9999 -9999 -9999 -9999 -9999 -9999 -9999 -9999 -9999 -9999 -9999 -9999 -9999 -9999 -9999 -9999 -9999 -9999 -9999 -9999 -9999 -9999 -9999 -9999 -9999 -9999 -9999 -9999 -9999 -9999 -9999 -9999 -9999 -9999 -9999 -9999 -9999 -9999 -9999 -9999 -9999 -9999 -9999 -9999 -9999 -9999 -9999 -9999 -9999 -9999 -9999 -9999 -9999 -9999 -9999 -9999 -9999 -9999 -9999 -9999 -9999 -9999 -9999 -9999 -9999 -9999 -9999 -9999 -9999 -9999 -9999 -9999 -9999 -9999 -9999 -9999 -9999 -9999 -9999 -9999 -9999 -9999 -9999 -9999 -9999 -9999 -9999 -9999 -9999 -9999 -9999 -9999 -9999 -9999 -9999 -9999 -9999 -9999 -9999 -9999 -9999 -9999 -9999 -9999 -9999 -9999 -9999 -9999 -9999 -9999 -9999 -9999 -9999 -9999 -9999 -9999 -9999 -9999 -9999 -9999 -9999 -9999 -9999 -9999 -9999 -9999 -9999 -9999 -9999 -9999 -9999 -9999 -9999 -9999 -9999 -9999 -9999 -9999 -9999 -9999 -9999 -9999 -9999 -9999 -9999 -9999 -9999 -9999 -9999 -9999 -9999 -9999 -9999 -9999 -9999 -9999 -9999 -9999 -9999 -9999 -9999 -9999 -9999 -9999 -9999 -9999 -9999 -9999 -9999 -9999 -9999 -9999 -9999 -9999 -9999 -9999 -9999 -9999 -9999 -9999 -9999 -9999 -9999 -9999 -9999 -9999 -9999 -9999 -9999 -9999 -9999 -9999 -9999 -9999 -9999 -9999 -9999 -9999 -9999 -9999 -9999 -9999 -9999 -9999 -9999 -9999
316 313 295 321 379 425 479 537 547 528 530 567 597 539 447 382 334 306 295 284 269 265 287 332 386 442 449 433 436 437 418 388 352 314 283 265 257 246 237 235 241 256 269 292 322 350 365 366 373 384 391 397 410 414 400 392 380 365 349 343 348 347 334 323 321 330 340 335 331 327 353 395 419 407 374 353 339 323 308 289 277 274 268 263 275 292 292 284 279 282 287 285 282 284 280 280 287 304 335 357 356 348 344 337 334 335 336 334 332 327 342 364 377 382 384 380 379 374 358 328 327 335 319 329 325 326 306 289 316 331 319 309 306 303 296 290 284 281 272 262 256 255 255 257 258 256 253 253 253 255 256 258 259 257 254 264 279 289 287 297 303 310 326 339 350 359 373 398 434 479 537 602 626 602 576 556 537 514 465 407 368 351 355 366 376 406 439 447 450 473 473 457 444 435 437 446 456 473 489 484 474 471 474 480 491 495 487 477 470 471 477 483 483 476 468 460 457 459 456 441 428 436 454 457 443 429 423 427 459 481 464 438 428 439 457 448 426 431 438 429 427 427 427 443 461 477 476 476 469 462 457 445 435 427 426 429 438 446 441 440 446 453 476 488 464 435 419 413 423 431 434 459 474 490 533 593 615 587 544 535 560 574 617 663 653 618 582 575 586 622 669 682 687 718 739 714 647 565 500 478 492 514 542 582 620 642 638 599 564 573 597 564 495 453 434 423 416 412 408 403 399 395 386 394 413 415 408 413 422 425 426 424 415 420 432 448 466 -9999 -9999 -9999 -9999 -9999 -9999 -9999 -9999 -9999 -9999 -9999 -9999 -9999 -9999 -9999 -9999 -9999 -9999 -9999 -9999 -9999 -9999 -9999 -9999 -9999 -9999 -9999 -9999 -9999 -9999 -9999 -9999 -9999 -9999 -9999 -9999 -9999 -9999 -9999 -9999 -9999 -9999 -9999 -9999 -9999 -9999 -9999 -9999 -9999 -9999 -9999 -9999 -9999 -9999 -9999 -9999 -9999 -9999 -9999 -9999 -9999 -9999 -9999 -9999 -9999 -9999 -9999 -9999 -9999 -9999 -9999 -9999 -9999 -9999 -9999 -9999 -9999 -9999 -9999 -9999 -9999 -9999 -9999 -9999 -9999 -9999 -9999 -9999 -9999 -9999 -9999 -9999 -9999 -9999 -9999 -9999 -9999 -9999 -9999 -9999 -9999 -9999 -9999 -9999 -9999 -9999 -9999 -9999 -9999 -9999 -9999 -9999 -9999 -9999 -9999 -9999 -9999 -9999 -9999 -9999 -9999 -9999 -9999 -9999 -9999 -9999 -9999 -9999 -9999 -9999 -9999 -9999 -9999 -9999 -9999 -9999 -9999 -9999 -9999 -9999 -9999 -9999 -9999 -9999 -9999 -9999 -9999 -9999 -9999 -9999 -9999 -9999 -9999 -9999 -9999 -9999 -9999 -9999 -9999 -9999 -9999 -9999 -9999 -9999 -9999 -9999 -9999 -9999 -9999 -9999 -9999 -9999 -9999 -9999 -9999 -9999 -9999 -9999 -9999 -9999 -9999 -9999 -9999 -9999 -9999 -9999 -9999 -9999 -9999 -9999 -9999 -9999 -9999 -9999 -9999 -9999 -9999 -9999 -9999 -9999 -9999 -9999 -9999 -9999 -9999 -9999 -9999 -9999 -9999 -9999 -9999 -9999 -9999 -9999 -9999 -9999 -9999 -9999 -9999 -9999 -9999 -9999 -9999 -9999 -9999 -9999 -9999 -9999 -9999 -9999 -9999 -9999 -9999 -9999 -9999 -9999 -9999 -9999 -9999 -9999 -9999 -9999 -9999 -9999 -9999 -9999 -9999 -9999 -9999 -9999 -9999 -9999 -9999 -9999 -9999 -9999 -9999 -9999 -9999
325 354 338 326 356 413 472 519 513 483 495 546 584 568 496 407 347 309 282 268 258 252 275 319 374 421 420 392 373 363 356 348 329 304 284 272 266 260 263 262 257 272 282 283 291 303 317 334 360 376 377 375 384 388 377 380 386 380 369 361 355 347 343 337 322 328 342 341 336 328 339 373 404 404 384 367 354 339 326 309 289 274 265 262 263 266 270 273 273 285 288 276 271 272 274 278 283 290 311 341 356 358 359 356 347 343 342 336 326 319 334 357 371 379 389 388 382 375 358 341 321 329 319 321 329 316 297 290 309 316 300 288 286 287 288 287 278 267 260 264 267 262 256 253 250 247 245 244 245 246 248 251 250 248 255 275 300 311 299 291 294 302 313 332 361 376 384 393 406 429 466 518 579 606 597 564 520 489 450 409 388 374 374 376 367 384 411 430 443 460 466 446 420 420 443 459 473 490 497 489 484 488 487 480 480 488 495 493 489 489 483 479 481 477 467 460 450 446 450 452 439 424 428 445 445 429 424 418 429 460 476 470 447 433 443 441 418 412 420 422 428 440 451 469 487 489 467 456 449 431 414 414 439 453 445 446 452 454 444 434 442 450 461 476 462 429 409 400 401 403 422 447 458 486 543 607 634 617 586 564 564 573 596 628 638 633 610 575 554 574 633 692 716 711 694 671 618 552 497 487 518 550 566 570 585 599 597 579 558 576 607 591 514 455 435 421 410 405 404 403 398 392 384 386 403 409 406 408 414 417 418 420 412 406 410 -9999 -9999 -9999 -9999 -9999 -9999 -9999 -9999 -9999 -9999 -9999 -9999 -9999 -9999 -9999 -9999 -9999 -9999 -9999 -9999 -9999 -9999 -9999 -9999 -9999 -9999 -9999 -9999 -9999 -9999 -9999 -9999 -9999 -9999 -9999 -9999 -9999 -9999 -9999 -9999 -9999 -9999 -9999 -9999 -9999 -9999 -9999 -9999 -9999 -9999 -9999 -9999 -9999 -9999 -9999 -9999 -9999 -9999 -9999 -9999 -9999 -9999 -9999 -9999 -9999 -9999 -9999 -9999 -9999 -9999 -9999 -9999 -9999 -9999 -9999 -9999 -9999 -9999 -9999 -9999 -9999 -9999 -9999 -9999 -9999 -9999 -9999 -9999 -9999 -9999 -9999 -9999 -9999 -9999 -9999 -9999 -9999 -9999 -9999 -9999 -9999 -9999 -9999 -9999 -9999 -9999 -9999 -9999 -9999 -9999 -9999 -9999 -9999 -9999 -9999 -9999 -9999 -9999 -9999 -9999 -9999 -9999 -9999 -9999 -9999 -9999 -9999 -9999 -9999 -9999 -9999 -9999 -9999 -9999 -9999 -9999 -9999 -9999 -9999 -9999 -9999 -9999 -9999 -9999 -9999 -9999 -9999 -9999 -9999 -9999 -9999 -9999 -9999 -9999 -9999 -9999 -9999 -9999 -9999 -9999 -9999 -9999 -9999 -9999 -9999 -9999 -9999 -9999 -9999 -9999 -9999 -9999 -9999 -9999 -9999 -9999 -9999 -9999 -9999 -9999 -9999 -9999 -9999 -9999 -9999 -9999 -9999 -9999 -9999 -9999 -9999 -9999 -9999 -9999 -9999 -9999 -9999 -9999 -9999 -9999 -9999 -9999 -9999 -9999 -9999 -9999 -9999 -9999 -9999 -9999 -9999 -9999 -9999 -9999 -9999 -9999 -9999 -9999 -9999 -9999 -9999 -9999 -9999 -9999 -9999 -9999 -9999 -9999 -9999 -9999 -9999 -9999 -9999 -9999 -9999 -9999 -9999 -9999 -9999 -9999 -9999 -9999 -9999 -9999 -9999 -9999 -9999 -9999 -9999 -9999 -9999 -9999 -9999 -9999 -9999 -9999 -9999 -9999 -9999 -9999 -9999
273 320 362 370 360 375 422 476 473 449 471 486 496 532 512 428 361 318 284 262 247 242 262 302 342 369 371 355 335 320 315 311 298 287 285 289 297 300 296 282 254 247 256 269 296 321 327 337 359 372 368 361 373 381 369 377 382 380 378 368 360 355 348 336 322 323 335 342 342 332 327 334 346 354 354 345 339 332 323 314 301 283 270 267 270 269 267 269 270 274 274 272 272 272 274 276 279 284 298 327 352 362 363 360 353 348 348 344 331 316 319 340 358 367 376 380 377 369 356 338 313 304 304 306 327 315 295 277 286 300 291 281 279 276 275 276 272 261 260 269 273 265 251 242 239 239 240 240 240 242 243 244 245 248 259 276 287 290 291 290 300 305 307 324 350 366 376 376 376 391 419 454 505 554 564 538 493 456 441 438 438 429 437 444 417 380 367 377 396 411 428 431 413 432 475 496 499 496 488 473 464 468 467 462 470 486 502 514 523 531 517 493 482 470 455 447 440 432 433 446 456 446 424 422 438 435 423 416 411 424 452 471 469 438 416 406 405 431 462 472 473 482 492 486 479 485 472 439 417 407 398 408 439 451 446 456 463 463 453 436 442 454 462 473 460 423 403 400 398 396 414 458 498 509 537 590 630 630 615 598 570 552 554 566 583 597 591 559 528 550 592 647 683 674 655 635 586 538 500 491 531 574 583 560 557 564 558 547 548 578 594 598 553 495 460 435 415 403 396 394 391 388 383 379 387 397 395 390 395 406 408 410 410 -9999 -9999 -9999 -9999 -9999 -9999 -9999 -9999 -9999 -9999 -9999 -9999 -9999 -9999 -9999 -9999 -9999 -9999 -9999 -9999 -9999 -9999 -9999 -9999 -9999 -9999 -9999 -9999 -9999 -9999 -9999 -9999 -9999 -9999 -9999 -9999 -9999 -9999 -9999 -9999 -9999 -9999 -9999 -9999 -9999 -9999 -9999 -9999 -9999 -9999 -9999 -9999 -9999 -9999 -9999 -9999 -9999 -9999 -9999 -9999 -9999 -9999 -9999 -9999 -9999 -9999 -9999 -9999 -9999 -9999 -9999 -9999 -9999 -9999 -9999 -9999 -9999 -9999 -9999 -9999 -9999 -9999 -9999 -9999 -9999 -9999 -9999 -9999 -9999 -9999 -9999 -9999 -9999 -9999 -9999 -9999 -9999 -9999 -9999 -9999 -9999 -9999 -9999 -9999 -9999 -9999 -9999 -9999 -9999 -9999 -9999 -9999 -9999 -9999 -9999 -9999 -9999 -9999 -9999 -9999 -9999 -9999 -9999 -9999 -9999 -9999 -9999 -9999 -9999 -9999 -9999 -9999 -9999 -9999 -9999 -9999 -9999 -9999 -9999 -9999 -9999 -9999 -9999 -9999 -9999 -9999 -9999 -9999 -9999 -9999 -9999 -9999 -9999 -9999 -9999 -9999 -9999 -9999 -9999 -9999 -9999 -9999 -9999 -9999 -9999 -9999 -9999 -9999 -9999 -9999 -9999 -9999 -9999 -9999 -9999 -9999 -9999 -9999 -9999 -9999 -9999 -9999 -9999 -9999 -9999 -9999 -9999 -9999 -9999 -9999 -9999 -9999 -9999 -9999 -9999 -9999 -9999 -9999 -9999 -9999 -9999 -9999 -9999 -9999 -9999 -9999 -9999 -9999 -9999 -9999 -9999 -9999 -9999 -9999 -9999 -9999 -9999 -9999 -9999 -9999 -9999 -9999 -9999 -9999 -9999 -9999 -9999 -9999 -9999 -9999 -9999 -9999 -9999 -9999 -9999 -9999 -9999 -9999 -9999 -9999 -9999 -9999 -9999 -9999 -9999 -9999 -9999 -9999 -9999 -9999 -9999 -9999 -9999 -9999 -9999 -9999 -9999 -9999 -9999 -9999 -9999 -9999 -9999
251 306 368 411 404 388 409 452 435 404 404 399 401 453 465 414 369 325 283 256 239 232 246 278 305 318 323 321 315 298 281 271 263 271 290 306 317 318 299 273 247 235 253 290 312 331 349 352 359 365 360 350 353 366 359 374 383 371 371 371 363 353 341 330 330 335 340 346 348 342 331 327 329 340 359 358 342 332 331 324 310 294 282 273 271 275 274 270 270 272 274 274 274 275 275 278 282 285 292 312 335 350 356 355 351 345 348 344 333 320 313 323 337 351 364 367 360 356 353 345 336 317 295 289 312 318 294 266 277 293 288 278 270 263 258 257 256 254 263 271 266 251 239 236 236 237 238 238 240 241 242 244 247 260 287 290 271 263 272 282 288 296 313 328 347 366 376 367 363 377 399 415 434 475 513 505 472 470 496 514 509 481 468 464 440 413 394 377 377 378 377 393 421 450 474 491 495 484 471 460 451 452 451 447 458 473 489 516 535 543 540 518 494 480 468 456 447 440 430 428 438 449 444 422 422 436 433 420 407 410 438 468 476 455 422 398 408 444 478 490 483 482 485 468 466 485 466 424 397 393 392 392 410 425 435 441 440 449 456 442 435 444 447 451 441 423 425 431 421 403 434 519 567 558 559 570 586 621 643 636 604 564 539 541 574 599 576 530 500 524 574 592 605 633 631 604 584 563 520 488 495 526 541 546 556 542 526 535 554 567 568 591 614 588 517 455 423 408 402 399 394 393 393 386 378 377 378 376 379 389 393 396 -9999 -9999 -9999 -9999 -9999 -9999 -9999 -9999 -9999 -9999 -9999 -9999 -9999 -9999 -9999 -9999 -9999 -9999 -9999 -9999 -9999 -9999 -9999 -9999 -9999 -9999 -9999 -9999 -9999 -9999 -9999 -9999 -9999 -9999 -9999 -9999 -9999 -9999 -9999 -9999 -9999 -9999 -9999 -9999 -9999 -9999 -9999 -9999 -9999 -9999 -9999 -9999 -9999 -9999 -9999 -9999 -9999 -9999 -9999 -9999 -9999 -9999 -9999 -9999 -9999 -9999 -9999 -9999 -9999 -9999 -9999 -9999 -9999 -9999 -9999 -9999 -9999 -9999 -9999 -9999 -9999 -9999 -9999 -9999 -9999 -9999 -9999 -9999 -9999 -9999 -9999 -9999 -9999 -9999 -9999 -9999 -9999 -9999 -9999 -9999 -9999 -9999 -9999 -9999 -9999 -9999 -9999 -9999 -9999 -9999 -9999 -9999 -9999 -9999 -9999 -9999 -9999 -9999 -9999 -9999 -9999 -9999 -9999 -9999 -9999 -9999 -9999 -9999 -9999 -9999 -9999 -9999 -9999 -9999 -9999 -9999 -9999 -9999 -9999 -9999 -9999 -9999 -9999 -9999 -9999 -9999 -9999 -9999 -9999 -9999 -9999 -9999 -9999 -9999 -9999 -9999 -9999 -9999 -9999 -9999 -9999 -9999 -9999 -9999 -9999 -9999 -9999 -9999 -9999 -9999 -9999 -9999 -9999 -9999 -9999 -9999 -9999 -9999 -9999 -9999 -9999 -9999 -9999 -9999 -9999 -9999 -9999 -9999 -9999 -9999 -9999 -9999 -9999 -9999 -9999 -9999 -9999 -9999 -9999 -9999 -9999 -9999 -9999 -9999 -9999 -9999 -9999 -9999 -9999 -9999 -9999 -9999 -9999 -9999 -9999 -9999 -9999 -9999 -9999 -9999 -9999 -9999 -9999 -9999 -9999 -9999 -9999 -9999 -9999 -9999 -9999 -9999 -9999 -9999 -9999 -9999 -9999 -9999 -9999 -9999 -9999 -9999 -9999 -9999 -9999 -9999 -9999 -9999 -9999 -9999 -9999 -9999 -9999 -9999 -9999 -9999 -9999 -9999 -9999 -9999 -9999 -9999 -9999 -9999
245 298 353 415 435 417 403 404 387 355 339 337 341 367 376 360 351 326 283 251 232 225 236 258 277 287 291 299 298 281 260 246 245 259 284 302 303 299 287 266 237 230 260 300 330 350 363 363 355 353 354 343 333 344 349 361 374 362 359 373 375 362 348 334 332 341 346 342 340 339 335 334 333 335 359 363 340 323 320 315 308 298 290 281 275 278 279 278 279 278 278 278 278 278 279 281 286 289 295 306 321 334 344 349 345 340 343 341 331 321 315 327 332 331 342 353 352 345 339 336 328 317 289 265 279 305 311 282 271 281 280 268 253 249 252 255 258 262 268 264 247 236 235 235 235 237 238 238 240 242 245 252 264 287 332 350 311 269 258 268 280 289 296 310 330 356 375 368 358 364 381 392 404 429 459 476 469 463 483 515 530 515 493 470 446 439 441 425 430 427 394 397 433 456 465 475 488 489 469 449 438 439 441 438 447 469 495 521 535 535 538 536 509 479 463 461 464 460 448 429 418 431 450 446 420 410 425 426 407 398 428 461 475 470 441 409 430 470 487 485 469 462 470 453 450 459 438 407 389 389 394 387 393 406 419 424 420 424 435 435 427 422 420 418 420 439 471 483 458 418 433 526 585 578 555 531 544 595 645 664 650 608 558 540 571 618 610 550 502 500 547 565 580 632 642 617 589 572 549 519 484 485 538 594 592 537 508 527 544 538 537 568 606 627 571 484 436 418 411 405 400 400 403 402 392 379 379 378 370 370 377 394 -9999 -9999 -9999 -9999 -9999 -9999 -9999 -9999 -9999 -9999 -9999 -9999 -9999 -9999 -9999 -9999 -9999 -9999 -9999 -9999 -9999 -9999 -9999 -9999 -9999 -9999 -9999 -9999 -9999 -9999 -9999 -9999 -9999 -9999 -9999 -9999 -9999 -9999 -9999 -9999 -9999 -9999 -9999 -9999 -9999 -9999 -9999 -9999 -9999 -9999 -9999 -9999 -9999 -9999 -9999 -9999 -9999 -9999 -9999 -9999 -9999 -9999 -9999 -9999 -9999 -9999 -9999 -9999 -9999 -9999 -9999 -9999 -9999 -9999 -9999 -9999 -9999 -9999 -9999 -9999 -9999 -9999 -9999 -9999 -9999 -9999 -9999 -9999 -9999 -9999 -9999 -9999 -9999 -9999 -9999 -9999 -9999 -9999 -9999 -9999 -9999 -9999 -9999 -9999 -9999 -9999 -9999 -9999 -9999 -9999 -9999 -9999 -9999 -9999 -9999 -9999 -9999 -9999 -9999 -9999 -9999 -9999 -9999 -9999 -9999 -9999 -9999 -9999 -9999 -9999 -9999 -9999 -9999 -9999 -9999 -9999 -9999 -9999 -9999 -9999 -9999 -9999 -9999 -9999 -9999 -9999 -9999 -9999 -9999 -9999 -9999 -9999 -9999 -9999 -9999 -9999 -9999 -9999 -9999 -9999 -9999 -9999 -9999 -9999 -9999 -9999 -9999 -9999 -9999 -9999 -9999 -9999 -9999 -9999 -9999 -9999 -9999 -9999 -9999 -9999 -9999 -9999 -9999 -9999 -9999 -9999 -9999 -9999 -9999 -9999 -9999 -9999 -9999 -9999 -9999 -9999 -9999 -9999 -9999 -9999 -9999 -9999 -9999 -9999 -9999 -9999 -9999 -9999 -9999 -9999 -9999 -9999 -9999 -9999 -9999 -9999 -9999 -9999 -9999 -9999 -9999 -9999 -9999 -9999 -9999 -9999 -9999 -9999 -9999 -9999 -9999 -9999 -9999 -9999 -9999 -9999 -9999 -9999 -9999 -9999 -9999 -9999 -9999 -9999 -9999 -9999 -9999 -9999 -9999 -9999 -9999 -9999 -9999 -9999 -9999 -9999 -9999 -9999 -9999 -9999 -9999 -9999 -9999 -9999
249 283 323 369 392 388 374 354 335 317 316 308 295 299 302 299 300 293 268 244 228 218 231 247 258 270 278 286 288 276 256 242 239 248 267 287 289 276 264 243 221 229 253 281 315 348 364 360 346 337 337 340 333 326 326 332 344 343 349 367 365 352 345 336 331 332 331 328 326 330 337 343 345 336 330 327 318 308 303 306 312 303 292 285 279 280 280 286 294 290 288 288 286 286 287 286 290 296 302 311 317 323 331 339 342 338 332 330 324 314 311 328 335 327 326 332 336 332 322 314 303 290 271 256 275 305 318 304 273 260 265 252 240 251 264 268 270 269 259 243 233 235 238 238 237 238 239 243 252 258 272 288 302 326 360 379 350 296 263 256 263 272 280 294 312 335 356 359 350 349 359 373 392 407 418 429 448 464 472 481 494 495 486 467 455 473 481 455 457 459 423 392 402 426 443 459 483 496 482 457 439 443 443 434 443 465 494 526 540 535 542 567 555 504 461 444 445 453 449 433 414 410 424 443 439 415 407 418 414 397 401 428 455 459 430 409 439 477 491 481 457 460 465 450 431 421 407 390 381 381 388 389 396 402 410 410 406 409 414 421 430 431 432 433 438 451 471 493 491 444 425 504 561 552 532 512 534 566 600 652 671 651 601 549 545 582 591 547 505 490 531 560 560 602 633 612 578 563 559 536 488 489 544 603 598 539 500 503 511 517 524 548 570 601 610 560 489 444 424 414 407 404 404 402 397 394 405 410 394 374 367 379 393 -9999 -9999 -9999 -9999 -9999 -9999 -9999 -9999 -9999 -9999 -9999 -9999 -9999 -9999 -9999 -9999 -9999 -9999 -9999 -9999 -9999 -9999 -9999 -9999 -9999 -9999 -9999 -9999 -9999 -9999 -9999 -9999 -9999 -9999 -9999 -9999 -9999 -9999 -9999 -9999 -9999 -9999 -9999 -9999 -9999 -9999 -9999 -9999 -9999 -9999 -9999 -9999 -9999 -9999 -9999 -9999 -9999 -9999 -9999 -9999 -9999 -9999 -9999 -9999 -9999 -9999 -9999 -9999 -9999 -9999 -9999 -9999 -9999 -9999 -9999 -9999 -9999 -9999 -9999 -9999 -9999 -9999 -9999 -9999 -9999 -9999 -9999 -9999 -9999 -9999 -9999 -9999 -9999 -9999 -9999 -9999 -9999 -9999 -9999 -9999 -9999 -9999 -9999 -9999 -9999 -9999 -9999 -9999 -9999 -9999 -9999 -9999 -9999 -9999 -9999 -9999 -9999 -9999 -9999 -9999 -9999 -9999 -9999 -9999 -9999 -9999 -9999 -9999 -9999 -9999 -9999 -9999 -9999 -9999 -9999 -9999 -9999 -9999 -9999 -9999 -9999 -9999 -9999 -9999 -9999 -9999 -9999 -9999 -9999 -9999 -9999 -9999 -9999 -9999 -9999 -9999 -9999 -9999 -9999 -9999 -9999 -9999 -9999 -9999 -9999 -9999 -9999 -9999 -9999 -9999 -9999 -9999 -9999 -9999 -9999 -9999 -9999 -9999 -9999 -9999 -9999 -9999 -9999 -9999 -9999 -9999 -9999 -9999 -9999 -9999 -9999 -9999 -9999 -9999 -9999 -9999 -9999 -9999 -9999 -9999 -9999 -9999 -9999 -9999 -9999 -9999 -9999 -9999 -9999 -9999 -9999 -9999 -9999 -9999 -9999 -9999 -9999 -9999 -9999 -9999 -9999 -9999 -9999 -9999 -9999 -9999 -9999 -9999 -9999 -9999 -9999 -9999 -9999 -9999 -9999 -9999 -9999 -9999 -9999 -9999 -9999 -9999 -9999 -9999 -9999 -9999 -9999 -9999 -9999 -9999 -9999 -9999 -9999 -9999 -9999 -9999 -9999 -9999 -9999 -9999 -9999 -9999 -9999
267 263 283 314 333 328 324 316 296 286 291 273 251 249 255 262 268 263 245 228 220 211 218 234 241 251 263 272 279 277 265 248 237 237 251 270 282 269 247 224 219 246 282 306 326 341 349 352 343 329 323 330 337 329 315 316 330 329 332 349 347 335 327 323 321 322 318 314 315 327 335 339 351 358 341 318 306 301 298 303 311 303 294 288 282 279 277 279 288 294 303 310 305 300 298 294 292 295 303 313 316 317 319 324 331 335 335 330 320 310 304 314 327 326 320 317 316 313 312 310 299 282 270 266 287 307 310 303 280 251 242 245 250 248 247 252 257 254 241 234 235 239 242 244 245 245 247 258 289 308 319 333 332 337 351 359 365 337 291 264 257 259 269 285 303 321 342 349 341 338 345 360 380 388 388 392 415 457 490 496 491 481 469 459 459 477 482 458 457 462 439 399 391 421 449 466 475 486 481 459 440 441 438 435 453 473 492 518 536 532 539 562 566 523 474 450 439 433 429 420 408 397 400 425 447 443 419 400 393 396 390 396 429 452 431 404 431 466 474 471 449 439 441 437 426 407 389 381 376 375 380 396 409 402 401 413 420 423 422 421 435 457 474 475 470 482 499 504 497 465 426 468 520 520 507 491 496 506 539 604 665 688 655 588 537 528 537 531 506 488 533 568 543 547 602 612 569 543 534 508 477 486 510 529 533 516 488 484 510 546 548 538 550 578 610 624 577 496 444 420 408 401 397 394 399 413 418 412 406 395 379 365 362 -9999 -9999 -9999 -9999 -9999 -9999 -9999 -9999 -9999 -9999 -9999 -9999 -9999 -9999 -9999 -9999 -9999 -9999 -9999 -9999 -9999 -9999 -9999 -9999 -9999 -9999 -9999 -9999 -9999 -9999 -9999 -9999 -9999 -9999 -9999 -9999 -9999 -9999 -9999 -9999 -9999 -9999 -9999 -9999 -9999 -9999 -9999 -9999 -9999 -9999 -9999 -9999 -9999 -9999 -9999 -9999 -9999 -9999 -9999 -9999 -9999 -9999 -9999 -9999 -9999 -9999 -9999 -9999 -9999 -9999 -9999 -9999 -9999 -9999 -9999 -9999 -9999 -9999 -9999 -9999 -9999 -9999 -9999 -9999 -9999 -9999 -9999 -9999 -9999 -9999 -9999 -9999 -9999 -9999 -9999 -9999 -9999 -9999 -9999 -9999 -9999 -9999 -9999 -9999 -9999 -9999 -9999 -9999 -9999 -9999 -9999 -9999 -9999 -9999 -9999 -9999 -9999 -9999 -9999 -9999 -9999 -9999 -9999 -9999 -9999 -9999 -9999 -9999 -9999 -9999 -9999 -9999 -9999 -9999 -9999 -9999 -9999 -9999 -9999 -9999 -9999 -9999 -9999 -9999 -9999 -9999 -9999 -9999 -9999 -9999 -9999 -9999 -9999 -9999 -9999 -9999 -9999 -9999 -9999 -9999 -9999 -9999 -9999 -9999 -9999 -9999 -9999 -9999 -9999 -9999 -9999 -9999 -9999 -9999 -9999 -9999 -9999 -9999 -9999 -9999 -9999 -9999 -9999 -9999 -9999 -9999 -9999 -9999 -9999 -9999 -9999 -9999 -9999 -9999 -9999 -9999 -9999 -9999 -9999 -9999 -9999 -9999 -9999 -9999 -9999 -9999 -9999 -9999 -9999 -9999 -9999 -9999 -9999 -9999 -9999 -9999 -9999 -9999 -9999 -9999 -9999 -9999 -9999 -9999 -9999 -9999 -9999 -9999 -9999 -9999 -9999 -9999 -9999 -9999 -9999 -9999 -9999 -9999 -9999 -9999 -9999 -9999 -9999 -9999 -9999 -9999 -9999 -9999 -9999 -9999 -9999 -9999 -9999 -9999 -9999 -9999 -9999 -9999 -9999 -9999 -9999 -9999 -9999
262 237 236 268 305 297 269 262 252 250 253 235 212 210 225 245 255 247 233 221 214 208 206 215 230 243 258 280 289 283 268 252 241 234 245 264 278 274 243 216 229 261 290 311 321 326 332 337 336 323 313 318 325 322 311 307 320 325 324 330 327 322 318 312 311 312 307 304 303 316 324 325 337 351 345 327 309 302 301 296 295 294 293 288 282 277 275 277 283 295 322 347 341 324 315 309 302 299 303 310 311 308 306 308 313 320 327 329 326 321 313 302 308 315 310 307 305 300 298 305 310 302 283 271 286 301 296 284 258 251 268 271 263 260 255 251 245 238 235 237 240 241 243 244 245 246 248 255 276 312 340 348 335 328 346 360 373 363 325 289 271 263 267 280 294 314 344 358 341 330 334 353 371 372 370 372 391 429 478 508 516 506 487 471 464 465 460 449 455 462 449 417 395 414 447 467 463 458 462 449 429 425 426 437 453 470 493 521 536 531 530 545 561 534 484 461 459 454 440 433 420 405 399 415 437 444 438 423 409 397 389 383 406 435 419 400 427 449 454 463 448 420 421 428 414 394 381 378 375 372 375 390 395 405 422 434 445 450 446 437 437 456 475 483 488 494 503 508 497 470 423 415 454 487 496 477 461 460 489 542 593 644 661 634 582 531 509 513 509 489 511 547 530 514 558 582 551 520 510 488 468 469 472 474 482 485 472 471 498 536 553 543 542 559 587 619 626 551 467 427 408 398 394 397 410 421 416 405 397 396 391 376 -9999 -9999 -9999 -9999 -9999 -9999 -9999 -9999 -9999 -9999 -9999 -9999 -9999 -9999 -9999 -9999 -9999 -9999 -9999 -9999 -9999 -9999 -9999 -9999 -9999 -9999 -9999 -9999 -9999 -9999 -9999 -9999 -9999 -9999 -9999 -9999 -9999 -9999 -9999 -9999 -9999 -9999 -9999 -9999 -9999 -9999 -9999 -9999 -9999 -9999 -9999 -9999 -9999 -9999 -9999 -9999 -9999 -9999 -9999 -9999 -9999 -9999 -9999 -9999 -9999 -9999 -9999 -9999 -9999 -9999 -9999 -9999 -9999 -9999 -9999 -9999 -9999 -9999 -9999 -9999 -9999 -9999 -9999 -9999 -9999 -9999 -9999 -9999 -9999 -9999 -9999 -9999 -9999 -9999 -9999 -9999 -9999 -9999 -9999 -9999 -9999 -9999 -9999 -9999 -9999 -9999 -9999 -9999 -9999 -9999 -9999 -9999 -9999 -9999 -9999 -9999 -9999 -9999 -9999 -9999 -9999 -9999 -9999 -9999 -9999 -9999 -9999 -9999 -9999 -9999 -9999 -9999 -9999 -9999 -9999 -9999 -9999 -9999 -9999 -9999 -9999 -9999 -9999 -9999 -9999 -9999 -9999 -9999 -9999 -9999 -9999 -9999 -9999 -9999 -9999 -9999 -9999 -9999 -9999 -9999 -9999 -9999 -9999 -9999 -9999 -9999 -9999 -9999 -9999 -9999 -9999 -9999 -9999 -9999 -9999 -9999 -9999 -9999 -9999 -9999 -9999 -9999 -9999 -9999 -9999 -9999 -9999 -9999 -9999 -9999 -9999 -9999 -9999 -9999 -9999 -9999 -9999 -9999 -9999 -9999 -9999 -9999 -9999 -9999 -9999 -9999 -9999 -9999 -9999 -9999 -9999 -9999 -9999 -9999 -9999 -9999 -9999 -9999 -9999 -9999 -9999 -9999 -9999 -9999 -9999 -9999 -9999 -9999 -9999 -9999 -9999 -9999 -9999 -9999 -9999 -9999 -9999 -9999 -9999 -9999 -9999 -9999 -9999 -9999 -9999 -9999 -9999 -9999 -9999 -9999 -9999 -9999 -9999 -9999 -9999 -9999 -9999 -9999 -9999 -9999 -9999 -9999 -9999 -9999
210 199 214 263 314 307 255 221 209 212 228 216 194 188 202 218 233 242 239 229 220 209 198 211 235 250 263 289 305 299 279 254 240 233 240 257 268 274 248 220 234 265 286 299 307 310 316 318 321 318 306 302 310 322 321 306 304 315 311 304 303 304 305 303 302 302 298 296 292 296 305 312 320 321 327 328 316 313 316 305 299 301 299 292 284 277 275 277 285 298 320 347 357 350 337 325 314 308 308 308 303 298 295 296 298 305 316 327 327 319 313 303 295 298 298 295 294 291 287 291 301 304 286 266 277 295 287 263 247 263 295 289 263 253 250 248 244 238 235 236 236 237 239 242 245 247 250 255 264 283 308 325 321 316 329 346 370 372 351 332 311 287 270 270 286 306 332 358 346 326 323 335 347 351 351 360 377 404 446 497 537 542 512 485 481 474 466 463 472 479 470 443 409 408 446 473 468 445 431 424 425 430 442 463 476 480 491 517 537 530 519 523 535 518 468 433 428 438 446 443 434 419 400 397 414 424 429 434 430 414 394 377 380 408 410 392 410 423 436 454 442 412 411 424 413 395 384 377 372 369 369 376 391 422 438 431 425 424 426 434 441 446 461 476 474 479 496 505 496 475 432 397 421 465 487 476 452 437 458 499 526 574 637 662 634 579 528 501 502 499 492 500 492 496 540 557 537 515 493 468 454 452 451 451 456 463 461 458 476 507 531 536 527 537 566 601 619 553 464 424 410 403 403 406 408 412 413 403 390 -9999 -9999 -9999 -9999 -9999 -9999 -9999 -9999 -9999 -9999 -9999 -9999 -9999 -9999 -9999 -9999 -9999 -9999 -9999 -9999 -9999 -9999 -9999 -9999 -9999 -9999 -9999 -9999 -9999 -9999 -9999 -9999 -9999 -9999 -9999 -9999 -9999 -9999 -9999 -9999 -9999 -9999 -9999 -9999 -9999 -9999 -9999 -9999 -9999 -9999 -9999 -9999 -9999 -9999 -9999 -9999 -9999 -9999 -9999 -9999 -9999 -9999 -9999 -9999 -9999 -9999 -9999 -9999 -9999 -9999 -9999 -9999 -9999 -9999 -9999 -9999 -9999 -9999 -9999 -9999 -9999 -9999 -9999 -9999 -9999 -9999 -9999 -9999 -9999 -9999 -9999 -9999 -9999 -9999 -9999 -9999 -9999 -9999 -9999 -9999 -9999 -9999 -9999 -9999 -9999 -9999 -9999 -9999 -9999 -9999 -9999 -9999 -9999 -9999 -9999 -9999 -9999 -9999 -9999 -9999 -9999 -9999 -9999 -9999 -9999 -9999 -9999 -9999 -9999 -9999 -9999 -9999 -9999 -9999 -9999 -9999 -9999 -9999 -9999 -9999 -9999 -9999 -9999 -9999 -9999 -9999 -9999 -9999 -9999 -9999 -9999 -9999 -9999 -9999 -9999 -9999 -9999 -9999 -9999 -9999 -9999 -9999 -9999 -9999 -9999 -9999 -9999 -9999 -9999 -9999 -9999 -9999 -9999 -9999 -9999 -9999 -9999 -9999 -9999 -9999 -9999 -9999 -9999 -9999 -9999 -9999 -9999 -9999 -9999 -9999 -9999 -9999 -9999 -9999 -9999 -9999 -9999 -9999 -9999 -9999 -9999 -9999 -9999 -9999 -9999 -9999 -9999 -9999 -9999 -9999 -9999 -9999 -9999 -9999 -9999 -9999 -9999 -9999 -9999 -9999 -9999 -9999 -9999 -9999 -9999 -9999 -9999 -9999 -9999 -9999 -9999 -9999 -9999 -9999 -9999 -9999 -9999 -9999 -9999 -9999 -9999 -9999 -9999 -9999 -9999 -9999 -9999 -9999 -9999 -9999 -9999 -9999 -9999 -9999 -9999 -9999 -9999 -9999 -9999 -9999 -9999 -9999 -9999 -9999 -9999 -9999 -9999
173 192 220 270 308 292 243 207 191 190 200 199 186 179 189 204 217 228 238 238 225 204 201 219 235 246 259 278 307 317 293 262 240 230 226 238 255 265 240 214 229 259 279 290 295 295 298 300 304 306 299 290 297 316 323 312 298 299 300 293 285 286 298 307 307 302 293 286 284 290 308 321 319 312 321 333 331 319 309 304 309 321 328 316 294 280 276 278 285 303 325 351 377 385 368 341 321 311 307 304 299 295 291 294 299 303 312 326 329 322 314 306 298 291 287 285 282 278 282 289 296 300 289 266 275 290 278 250 244 258 275 272 256 247 245 243 243 241 239 238 235 235 236 239 243 246 250 257 273 285 282 287 309 332 341 345 362 364 363 365 343 312 286 270 277 299 324 351 350 327 319 333 350 354 357 363 374 401 447 495 534 555 532 501 491 488 490 495 497 496 482 456 424 407 428 454 456 437 416 424 456 473 476 486 494 496 500 511 526 519 506 507 511 497 464 434 417 411 413 415 410 411 409 392 395 402 397 400 412 427 426 404 379 373 378 373 381 394 413 433 425 399 397 417 422 410 394 381 373 376 376 371 385 414 418 401 407 430 435 441 456 462 470 477 462 449 460 477 480 470 426 394 419 455 469 463 442 419 419 445 471 518 578 621 637 622 584 536 503 505 519 522 499 474 481 504 517 519 504 477 453 447 445 444 447 455 464 456 461 481 501 513 519 548 580 607 613 543 473 441 424 415 409 404 399 397 396 390 391 407 -9999 -9999 -9999 -9999 -9999 -9999 -9999 -9999 -9999 -9999 -9999 -9999 -9999 -9999 -9999 -9999 -9999 -9999 -9999 -9999 -9999 -9999 -9999 -9999 -9999 -9999 -9999 -9999 -9999 -9999 -9999 -9999 -9999 -9999 -9999 -9999 -9999 -9999 -9999 -9999 -9999 -9999 -9999 -9999 -9999 -9999 -9999 -9999 -9999 -9999 -9999 -9999 -9999 -9999 -9999 -9999 -9999 -9999 -9999 -9999 -9999 -9999 -9999 -9999 -9999 -9999 -9999 -9999 -9999 -9999 -9999 -9999 -9999 -9999 -9999 -9999 -9999 -9999 -9999 -9999 -9999 -9999 -9999 -9999 -9999 -9999 -9999 -9999 -9999 -9999 -9999 -9999 -9999 -9999 -9999 -9999 -9999 -9999 -9999 -9999 -9999 -9999 -9999 -9999 -9999 -9999 -9999 -9999 -9999 -9999 -9999 -9999 -9999 -9999 -9999 -9999 -9999 -9999 -9999 -9999 -9999 -9999 -9999 -9999 -9999 -9999 -9999 -9999 -9999 -9999 -9999 -9999 -9999 -9999 -9999 -9999 -9999 -9999 -9999 -9999 -9999 -9999 -9999 -9999 -9999 -9999 -9999 -9999 -9999 -9999 -9999 -9999 -9999 -9999 -9999 -9999 -9999 -9999 -9999 -9999 -9999 -9999 -9999 -9999 -9999 -9999 -9999 -9999 -9999 -9999 -9999 -9999 -9999 -9999 -9999 -9999 -9999 -9999 -9999 -9999 -9999 -9999 -9999 -9999 -9999 -9999 -9999 -9999 -9999 -9999 -9999 -9999 -9999 -9999 -9999 -9999 -9999 -9999 -9999 -9999 -9999 -9999 -9999 -9999 -9999 -9999 -9999 -9999 -9999 -9999 -9999 -9999 -9999 -9999 -9999 -9999 -9999 -9999 -9999 -9999 -9999 -9999 -9999 -9999 -9999 -9999 -9999 -9999 -9999 -9999 -9999 -9999 -9999 -9999 -9999 -9999 -9999 -9999 -9999 -9999 -9999 -9999 -9999 -9999 -9999 -9999 -9999 -9999 -9999 -9999 -9999 -9999 -9999 -9999 -9999 -9999 -9999 -9999 -9999 -9999 -9999 -9999 -9999 -9999 -9999 -9999
165 202 235 273 301 281 240 206 184 175 175 179 179 174 183 206 223 224 226 229 216 195 204 219 226 245 272 283 302 322 312 281 253 236 222 222 238 259 249 219 230 262 278 286 290 286 283 285 291 296 286 278 287 303 311 308 294 291 295 289 278 281 310 333 324 305 289 278 276 277 289 299 297 300 306 318 334 333 316 306 314 341 375 357 311 286 279 280 288 305 332 379 434 445 404 357 330 317 310 308 307 303 295 299 308 312 315 320 326 336 329 317 313 308 300 291 284 280 281 289 293 291 289 273 272 281 267 244 245 253 255 253 247 244 243 244 246 247 246 245 244 241 239 237 238 239 244 251 273 284 272 280 313 343 372 378 366 359 367 371 354 328 308 282 271 288 313 335 346 325 314 344 372 383 385 383 392 407 451 499 528 548 541 513 497 496 494 498 501 498 483 456 434 413 407 422 425 416 429 459 491 502 487 481 484 488 501 513 514 503 495 496 501 501 478 445 423 411 405 403 399 396 396 393 388 388 381 375 379 398 417 421 410 388 371 363 359 364 382 411 423 403 394 415 429 417 399 383 375 381 379 374 373 380 388 390 406 437 448 452 470 485 490 484 465 442 429 432 433 424 417 407 401 410 419 427 424 411 399 406 430 467 512 549 572 595 610 582 525 494 508 527 519 504 478 460 457 475 499 495 465 453 452 447 445 454 461 453 453 476 510 537 542 555 584 611 621 588 560 510 456 432 419 409 403 400 396 395 409 428 438 -9999 -9999 -9999 -9999 -9999 -9999 -9999 -9999 -9999 -9999 -9999 -9999 -9999 -9999 -9999 -9999 -9999 -9999 -9999 -9999 -9999 -9999 -9999 -9999 -9999 -9999 -9999 -9999 -9999 -9999 -9999 -9999 -9999 -9999 -9999 -9999 -9999 -9999 -9999 -9999 -9999 -9999 -9999 -9999 -9999 -9999 -9999 -9999 -9999 -9999 -9999 -9999 -9999 -9999 -9999 -9999 -9999 -9999 -9999 -9999 -9999 -9999 -9999 -9999 -9999 -9999 -9999 -9999 -9999 -9999 -9999 -9999 -9999 -9999 -9999 -9999 -9999 -9999 -9999 -9999 -9999 -9999 -9999 -9999 -9999 -9999 -9999 -9999 -9999 -9999 -9999 -9999 -9999 -9999 -9999 -9999 -9999 -9999 -9999 -9999 -9999 -9999 -9999 -9999 -9999 -9999 -9999 -9999 -9999 -9999 -9999 -9999 -9999 -9999 -9999 -9999 -9999 -9999 -9999 -9999 -9999 -9999 -9999 -9999 -9999 -9999 -9999 -9999 -9999 -9999 -9999 -9999 -9999 -9999 -9999 -9999 -9999 -9999 -9999 -9999 -9999 -9999 -9999 -9999 -9999 -9999 -9999 -9999 -9999 -9999 -9999 -9999 -9999 -9999 -9999 -9999 -9999 -9999 -9999 -9999 -9999 -9999 -9999 -9999 -9999 -9999 -9999 -9999 -9999 -9999 -9999 -9999 -9999 -9999 -9999 -9999 -9999 -9999 -9999 -9999 -9999 -9999 -9999 -9999 -9999 -9999 -9999 -9999 -9999 -9999 -9999 -9999 -9999 -9999 -9999 -9999 -9999 -9999 -9999 -9999 -9999 -9999 -9999 -9999 -9999 -9999 -9999 -9999 -9999 -9999 -9999 -9999 -9999 -9999 -9999 -9999 -9999 -9999 -9999 -9999 -9999 -9999 -9999 -9999 -9999 -9999 -9999 -9999 -9999 -9999 -9999 -9999 -9999 -9999 -9999 -9999 -9999 -9999 -9999 -9999 -9999 -9999 -9999 -9999 -9999 -9999 -9999 -9999 -9999 -9999 -9999 -9999 -9999 -9999 -9999 -9999 -9999 -9999 -9999 -9999 -9999 -9999 -9999 -9999 -9999
152 176 208 252 290 268 220 190 174 165 160 160 163 163 168 183 205 211 209 209 198 182 189 205 222 248 278 283 279 283 293 287 265 247 234 217 216 246 260 229 220 243 265 277 277 274 268 272 285 290 280 273 280 285 284 288 288 283 290 290 278 287 308 321 317 304 288 277 271 268 275 283 291 306 314 316 341 355 335 314 312 332 363 349 311 289 282 283 291 305 327 369 421 437 402 365 345 330 321 315 310 304 295 298 305 309 313 314 321 337 335 320 311 307 302 297 294 292 286 280 282 281 277 266 265 276 265 241 242 250 249 246 243 242 243 247 254 265 276 280 276 261 247 239 237 238 240 243 254 261 258 263 291 334 377 401 397 386 374 365 354 335 317 291 270 276 300 323 329 314 313 343 365 383 400 401 411 423 458 507 542 555 544 517 495 491 490 490 499 505 499 479 457 435 417 400 403 440 479 505 513 514 490 470 471 474 482 490 494 490 486 491 496 500 484 454 436 428 422 416 411 406 416 436 437 427 410 389 374 379 391 397 409 416 410 400 385 364 368 402 422 406 385 399 417 408 393 379 367 364 379 400 394 379 378 388 412 445 459 471 492 507 505 486 463 445 430 422 419 428 447 443 420 399 386 398 411 409 391 387 399 421 459 489 514 534 562 582 558 505 479 472 472 486 490 472 453 442 453 488 489 463 456 454 448 455 460 461 457 470 499 531 551 558 574 605 635 646 656 616 527 465 438 429 421 412 405 401 419 436 434 -9999 -9999 -9999 -9999 -9999 -9999 -9999 -9999 -9999 -9999 -9999 -9999 -9999 -9999 -9999 -9999 -9999 -9999 -9999 -9999 -9999 -9999 -9999 -9999 -9999 -9999 -9999 -9999 -9999 -9999 -9999 -9999 -9999 -9999 -9999 -9999 -9999 -9999 -9999 -9999 -9999 -9999 -9999 -9999 -9999 -9999 -9999 -9999 -9999 -9999 -9999 -9999 -9999 -9999 -9999 -9999 -9999 -9999 -9999 -9999 -9999 -9999 -9999 -9999 -9999 -9999 -9999 -9999 -9999 -9999 -9999 -9999 -9999 -9999 -9999 -9999 -9999 -9999 -9999 -9999 -9999 -9999 -9999 -9999 -9999 -9999 -9999 -9999 -9999 -9999 -9999 -9999 -9999 -9999 -9999 -9999 -9999 -9999 -9999 -9999 -9999 -9999 -9999 -9999 -9999 -9999 -9999 -9999 -9999 -9999 -9999 -9999 -9999 -9999 -9999 -9999 -9999 -9999 -9999 -9999 -9999 -9999 -9999 -9999 -9999 -9999 -9999 -9999 -9999 -9999 -9999 -9999 -9999 -9999 -9999 -9999 -9999 -9999 -9999 -9999 -9999 -9999 -9999 -9999 -9999 -9999 -9999 -9999 -9999 -9999 -9999 -9999 -9999 -9999 -9999 -9999 -9999 -9999 -9999 -9999 -9999 -9999 -9999 -9999 -9999 -9999 -9999 -9999 -9999 -9999 -9999 -9999 -9999 -9999 -9999 -9999 -9999 -9999 -9999 -9999 -9999 -9999 -9999 -9999 -9999 -9999 -9999 -9999 -9999 -9999 -9999 -9999 -9999 -9999 -9999 -9999 -9999 -9999 -9999 -9999 -9999 -9999 -9999 -9999 -9999 -9999 -9999 -9999 -9999 -9999 -9999 -9999 -9999 -9999 -9999 -9999 -9999 -9999 -9999 -9999 -9999 -9999 -9999 -9999 -9999 -9999 -9999 -9999 -9999 -9999 -9999 -9999 -9999 -9999 -9999 -9999 -9999 -9999 -9999 -9999 -9999 -9999 -9999 -9999 -9999 -9999 -9999 -9999 -9999 -9999 -9999 -9999 -9999 -9999 -9999 -9999 -9999 -9999 -9999 -9999 -9999 -9999 -9999 -9999 -9999
146 151 172 227 258 221 172 153 150 149 147 146 146 147 149 151 162 175 180 176 177 173 175 199 234 246 245 247 254 254 257 264 262 253 242 222 206 228 253 235 214 228 255 271 269 260 256 261 269 268 264 262 264 268 268 272 276 276 287 292 280 287 300 294 290 287 286 284 277 273 275 278 280 294 327 343 346 348 337 322 311 308 310 305 294 286 282 285 294 306 318 339 369 385 377 363 353 344 332 320 309 299 294 303 310 311 312 311 310 314 315 310 305 301 297 293 290 289 288 282 273 270 271 263 256 262 262 243 238 244 245 243 241 241 245 249 261 301 349 372 365 329 286 256 244 242 244 246 247 250 255 263 294 335 370 397 403 390 369 367 356 340 322 301 279 271 281 302 310 311 316 329 347 374 401 411 423 443 473 516 558 567 559 537 505 488 489 488 493 509 511 488 469 454 439 413 410 459 504 519 504 493 472 464 471 477 483 489 490 486 483 490 493 494 483 460 444 436 429 422 427 454 475 482 466 437 411 393 378 370 371 375 385 401 411 417 409 376 365 392 414 407 384 383 394 386 373 366 367 370 384 411 424 411 394 398 422 448 462 468 483 495 501 492 468 446 434 424 418 430 449 453 447 421 388 397 422 419 390 375 378 391 414 443 475 506 538 563 559 526 487 480 483 467 453 451 472 472 445 450 482 484 462 451 446 449 454 468 467 469 498 534 558 562 567 590 635 667 687 694 633 530 462 436 422 413 408 409 424 438 -9999 -9999 -9999 -9999 -9999 -9999 -9999 -9999 -9999 -9999 -9999 -9999 -9999 -9999 -9999 -9999 -9999 -9999 -9999 -9999 -9999 -9999 -9999 -9999 -9999 -9999 -9999 -9999 -9999 -9999 -9999 -9999 -9999 -9999 -9999 -9999 -9999 -9999 -9999 -9999 -9999 -9999 -9999 -9999 -9999 -9999 -9999 -9999 -9999 -9999 -9999 -9999 -9999 -9999 -9999 -9999 -9999 -9999 -9999 -9999 -9999 -9999 -9999 -9999 -9999 -9999 -9999 -9999 -9999 -9999 -9999 -9999 -9999 -9999 -9999 -9999 -9999 -9999 -9999 -9999 -9999 -9999 -9999 -9999 -9999 -9999 -9999 -9999 -9999 -9999 -9999 -9999 -9999 -9999 -9999 -9999 -9999 -9999 -9999 -9999 -9999 -9999 -9999 -9999 -9999 -9999 -9999 -9999 -9999 -9999 -9999 -9999 -9999 -9999 -9999 -9999 -9999 -9999 -9999 -9999 -9999 -9999 -9999 -9999 -9999 -9999 -9999 -9999 -9999 -9999 -9999 -9999 -9999 -9999 -9999 -9999 -9999 -9999 -9999 -9999 -9999 -9999 -9999 -9999 -9999 -9999 -9999 -9999 -9999 -9999 -9999 -9999 -9999 -9999 -9999 -9999 -9999 -9999 -9999 -9999 -9999 -9999 -9999 -9999 -9999 -9999 -9999 -9999 -9999 -9999 -9999 -9999 -9999 -9999 -9999 -9999 -9999 -9999 -9999 -9999 -9999 -9999 -9999 -9999 -9999 -9999 -9999 -9999 -9999 -9999 -9999 -9999 -9999 -9999 -9999 -9999 -9999 -9999 -9999 -9999 -9999 -9999 -9999 -9999 -9999 -9999 -9999 -9999 -9999 -9999 -9999 -9999 -9999 -9999 -9999 -9999 -9999 -9999 -9999 -9999 -9999 -9999 -9999 -9999 -9999 -9999 -9999 -9999 -9999 -9999 -9999 -9999 -9999 -9999 -9999 -9999 -9999 -9999 -9999 -9999 -9999 -9999 -9999 -9999 -9999 -9999 -9999 -9999 -9999 -9999 -9999 -9999 -9999 -9999 -9999 -9999 -9999 -9999 -9999 -9999 -9999 -9999 -9999 -9999 -9999 -9999
144 145 153 174 180 163 149 146 147 147 147 146 145 145 147 148 148 149 151 154 165 163 158 172 199 210 204 205 218 229 226 229 237 236 229 212 197 202 216 214 211 227 253 270 266 250 249 255 257 266 277 279 279 277 276 275 273 278 292 293 273 271 282 274 264 263 267 271 267 266 279 295 303 305 327 355 359 347 335 326 320 311 299 293 289 284 281 284 292 302 309 318 336 354 357 353 350 346 338 327 314 297 293 301 311 314 312 308 304 302 301 299 297 295 291 288 285 282 282 280 271 262 263 262 250 247 245 235 231 236 240 242 242 242 247 256 271 312 371 407 400 363 319 285 269 258 254 254 265 279 289 287 281 294 326 357 372 367 349 358 352 334 322 306 291 283 279 287 296 318 327 327 343 368 393 413 430 460 504 549 585 591 590 568 526 497 485 478 471 473 475 465 462 464 457 430 407 426 463 485 479 458 447 465 473 483 488 484 481 482 489 497 500 499 491 466 454 459 459 462 474 502 517 502 466 428 406 392 380 375 369 363 363 367 373 389 398 374 365 386 394 391 378 368 366 367 381 386 388 395 402 405 426 438 417 397 402 424 437 452 469 489 506 499 475 458 458 445 429 434 446 441 427 411 384 387 420 427 404 376 367 373 389 412 440 476 514 552 574 571 540 517 517 503 479 478 514 519 477 435 444 485 488 460 435 436 452 472 482 482 503 542 570 559 541 556 618 677 704 708 665 560 471 435 429 433 430 432 440 -9999 -9999 -9999 -9999 -9999 -9999 -9999 -9999 -9999 -9999 -9999 -9999 -9999 -9999 -9999 -9999 -9999 -9999 -9999 -9999 -9999 -9999 -9999 -9999 -9999 -9999 -9999 -9999 -9999 -9999 -9999 -9999 -9999 -9999 -9999 -9999 -9999 -9999 -9999 -9999 -9999 -9999 -9999 -9999 -9999 -9999 -9999 -9999 -9999 -9999 -9999 -9999 -9999 -9999 -9999 -9999 -9999 -9999 -9999 -9999 -9999 -9999 -9999 -9999 -9999 -9999 -9999 -9999 -9999 -9999 -9999 -9999 -9999 -9999 -9999 -9999 -9999 -9999 -9999 -9999 -9999 -9999 -9999 -9999 -9999 -9999 -9999 -9999 -9999 -9999 -9999 -9999 -9999 -9999 -9999 -9999 -9999 -9999 -9999 -9999 -9999 -9999 -9999 -9999 -9999 -9999 -9999 -9999 -9999 -9999 -9999 -9999 -9999 -9999 -9999 -9999 -9999 -9999 -9999 -9999 -9999 -9999 -9999 -9999 -9999 -9999 -9999 -9999 -9999 -9999 -9999 -9999 -9999 -9999 -9999 -9999 -9999 -9999 -9999 -9999 -9999 -9999 -9999 -9999 -9999 -9999 -9999 -9999 -9999 -9999 -9999 -9999 -9999 -9999 -9999 -9999 -9999 -9999 -9999 -9999 -9999 -9999 -9999 -9999 -9999 -9999 -9999 -9999 -9999 -9999 -9999 -9999 -9999 -9999 -9999 -9999 -9999 -9999 -9999 -9999 -9999 -9999 -9999 -9999 -9999 -9999 -9999 -9999 -9999 -9999 -9999 -9999 -9999 -9999 -9999 -9999 -9999 -9999 -9999 -9999 -9999 -9999 -9999 -9999 -9999 -9999 -9999 -9999 -9999 -9999 -9999 -9999 -9999 -9999 -9999 -9999 -9999 -9999 -9999 -9999 -9999 -9999 -9999 -9999 -9999 -9999 -9999 -9999 -9999 -9999 -9999 -9999 -9999 -9999 -9999 -9999 -9999 -9999 -9999 -9999 -9999 -9999 -9999 -9999 -9999 -9999 -9999 -9999 -9999 -9999 -9999 -9999 -9999 -9999 -9999 -9999 -9999 -9999 -9999 -9999 -9999 -9999 -9999 -9999 -9999 -9999 -9999
143 145 146 147 145 145 147 148 148 148 147 146 146 146 146 148 150 150 149 148 148 148 149 151 156 162 169 178 189 197 200 210 224 229 215 196 199 211 214 221 240 257 272 282 273 252 258 277 286 292 307 314 310 303 302 301 295 296 301 298 278 259 254 249 250 262 266 270 274 279 282 298 326 346 346 334 334 343 346 337 328 321 308 300 295 287 283 284 294 304 305 306 320 337 342 339 341 341 338 330 319 304 292 295 309 313 309 304 299 295 294 293 290 288 286 282 280 276 276 275 265 260 263 260 251 237 226 228 235 238 239 240 241 242 254 277 292 317 361 384 378 354 342 333 316 296 279 269 285 309 314 320 317 294 294 325 347 348 333 338 333 317 304 300 318 325 302 285 296 324 338 330 333 357 384 394 406 445 513 578 614 611 597 568 530 511 499 484 469 454 444 444 449 453 449 433 412 411 438 451 447 433 434 482 506 496 502 506 501 515 532 531 523 517 507 485 475 496 518 529 524 518 521 507 462 420 396 386 392 393 389 387 383 376 367 364 376 365 361 374 366 361 362 361 369 380 395 407 408 416 428 425 441 460 444 420 424 432 440 469 502 522 529 516 492 482 496 486 458 445 442 434 425 434 413 386 402 420 409 380 364 365 377 399 421 451 482 526 577 610 602 559 526 506 490 491 517 527 506 457 434 478 509 493 455 452 469 480 494 504 515 546 568 543 520 537 601 676 713 719 644 530 465 445 450 459 457 452 -9999 -9999 -9999 -9999 -9999 -9999 -9999 -9999 -9999 -9999 -9999 -9999 -9999 -9999 -9999 -9999 -9999 -9999 -9999 -9999 -9999 -9999 -9999 -9999 -9999 -9999 -9999 -9999 -9999 -9999 -9999 -9999 -9999 -9999 -9999 -9999 -9999 -9999 -9999 -9999 -9999 -9999 -9999 -9999 -9999 -9999 -9999 -9999 -9999 -9999 -9999 -9999 -9999 -9999 -9999 -9999 -9999 -9999 -9999 -9999 -9999 -9999 -9999 -9999 -9999 -9999 -9999 -9999 -9999 -9999 -9999 -9999 -9999 -9999 -9999 -9999 -9999 -9999 -9999 -9999 -9999 -9999 -9999 -9999 -9999 -9999 -9999 -9999 -9999 -9999 -9999 -9999 -9999 -9999 -9999 -9999 -9999 -9999 -9999 -9999 -9999 -9999 -9999 -9999 -9999 -9999 -9999 -9999 -9999 -9999 -9999 -9999 -9999 -9999 -9999 -9999 -9999 -9999 -9999 -9999 -9999 -9999 -9999 -9999 -9999 -9999 -9999 -9999 -9999 -9999 -9999 -9999 -9999 -9999 -9999 -9999 -9999 -9999 -9999 -9999 -9999 -9999 -9999 -9999 -9999 -9999 -9999 -9999 -9999 -9999 -9999 -9999 -9999 -9999 -9999 -9999 -9999 -9999 -9999 -9999 -9999 -9999 -9999 -9999 -9999 -9999 -9999 -9999 -9999 -9999 -9999 -9999 -9999 -9999 -9999 -9999 -9999 -9999 -9999 -9999 -9999 -9999 -9999 -9999 -9999 -9999 -9999 -9999 -9999 -9999 -9999 -9999 -9999 -9999 -9999 -9999 -9999 -9999 -9999 -9999 -9999 -9999 -9999 -9999 -9999 -9999 -9999 -9999 -9999 -9999 -9999 -9999 -9999 -9999 -9999 -9999 -9999 -9999 -9999 -9999 -9999 -9999 -9999 -9999 -9999 -9999 -9999 -9999 -9999 -9999 -9999 -9999 -9999 -9999 -9999 -9999 -9999 -9999 -9999 -9999 -9999 -9999 -9999 -9999 -9999 -9999 -9999 -9999 -9999 -9999 -9999 -9999 -9999 -9999 -9999 -9999 -9999 -9999 -9999 -9999 -9999 -9999 -9999 -9999 -9999 -9999 -9999 -9999
143 144 145 146 146 147 148 149 149 149 148 147 147 147 147 149 150 150 150 150 150 148 149 150 151 151 154 161 169 176 182 193 213 228 213 197 218 244 251 256 268 279 286 292 281 253 256 280 301 311 315 324 329 322 318 321 318 310 306 302 281 257 256 264 280 291 292 296 300 308 308 300 317 365 385 366 352 344 344 342 331 320 316 319 315 303 290 285 287 292 303 315 322 327 328 326 330 335 334 331 325 314 299 294 306 311 307 303 298 291 286 288 288 284 280 277 274 271 266 263 257 261 268 261 249 237 228 233 239 236 234 236 239 245 263 294 313 326 348 345 334 319 322 330 333 325 305 286 288 317 333 339 340 324 299 298 316 329 318 310 303 291 287 312 357 383 350 302 294 314 331 329 328 340 355 371 397 434 492 572 622 611 575 555 544 538 531 516 493 473 455 440 436 437 433 423 416 409 413 419 419 416 426 475 527 540 536 523 509 527 556 556 532 506 505 506 498 505 519 516 504 493 489 474 437 413 403 401 412 415 423 427 415 408 396 377 362 351 349 355 363 377 389 392 396 400 407 416 425 427 423 426 445 469 462 445 465 486 482 487 509 525 526 521 514 507 505 500 478 452 438 430 420 421 417 387 369 382 388 381 381 374 371 380 397 420 461 506 550 596 607 571 525 494 495 519 522 504 500 462 438 485 514 495 454 456 476 486 499 518 528 532 526 514 527 549 598 660 678 675 634 576 515 467 453 458 469 -9999 -9999 -9999 -9999 -9999 -9999 -9999 -9999 -9999 -9999 -9999 -9999 -9999 -9999 -9999 -9999 -9999 -9999 -9999 -9999 -9999 -9999 -9999 -9999 -9999 -9999 -9999 -9999 -9999 -9999 -9999 -9999 -9999 -9999 -9999 -9999 -9999 -9999 -9999 -9999 -9999 -9999 -9999 -9999 -9999 -9999 -9999 -9999 -9999 -9999 -9999 -9999 -9999 -9999 -9999 -9999 -9999 -9999 -9999 -9999 -9999 -9999 -9999 -9999 -9999 -9999 -9999 -9999 -9999 -9999 -9999 -9999 -9999 -9999 -9999 -9999 -9999 -9999 -9999 -9999 -9999 -9999 -9999 -9999 -9999 -9999 -9999 -9999 -9999 -9999 -9999 -9999 -9999 -9999 -9999 -9999 -9999 -9999 -9999 -9999 -9999 -9999 -9999 -9999 -9999 -9999 -9999 -9999 -9999 -9999 -9999 -9999 -9999 -9999 -9999 -9999 -9999 -9999 -9999 -9999 -9999 -9999 -9999 -9999 -9999 -9999 -9999 -9999 -9999 -9999 -9999 -9999 -9999 -9999 -9999 -9999 -9999 -9999 -9999 -9999 -9999 -9999 -9999 -9999 -9999 -9999 -9999 -9999 -9999 -9999 -9999 -9999 -9999 -9999 -9999 -9999 -9999 -9999 -9999 -9999 -9999 -9999 -9999 -9999 -9999 -9999 -9999 -9999 -9999 -9999 -9999 -9999 -9999 -9999 -9999 -9999 -9999 -9999 -9999 -9999 -9999 -9999 -9999 -9999 -9999 -9999 -9999 -9999 -9999 -9999 -9999 -9999 -9999 -9999 -9999 -9999 -9999 -9999 -9999 -9999 -9999 -9999 -9999 -9999 -9999 -9999 -9999 -9999 -9999 -9999 -9999 -9999 -9999 -9999 -9999 -9999 -9999 -9999 -9999 -9999 -9999 -9999 -9999 -9999 -9999 -9999 -9999 -9999 -9999 -9999 -9999 -9999 -9999 -9999 -9999 -9999 -9999 -9999 -9999 -9999 -9999 -9999 -9999 -9999 -9999 -9999 -9999 -9999 -9999 -9999 -9999 -9999 -9999 -9999 -9999 -9999 -9999 -9999 -9999 -9999 -9999 -9999 -9999 -9999 -9999 -9999 -9999 -9999 -9999
148 147 148 147 147 148 148 149 149 149 149 150 149 148 147 148 149 150 150 150 150 150 149 150 150 151 151 154 160 165 169 176 194 214 212 195 212 241 250 255 265 278 292 301 288 255 256 284 309 329 335 329 324 323 323 326 326 316 305 297 276 265 289 304 324 339 340 333 327 325 323 313 308 327 344 345 357 369 364 356 347 335 327 330 330 317 299 289 286 289 304 323 332 332 326 319 319 326 329 327 324 320 313 299 302 309 305 301 297 291 282 278 281 281 277 272 269 266 260 252 253 265 267 258 248 242 230 228 233 236 241 246 245 249 265 290 313 329 335 323 307 300 306 307 304 307 311 305 296 311 324 324 326 328 323 304 292 304 304 294 289 282 282 310 353 382 358 312 295 307 320 314 314 327 336 353 383 414 455 522 582 573 549 572 594 593 575 542 511 498 481 464 450 437 425 427 442 436 425 430 438 439 429 444 484 502 493 481 475 486 504 509 499 484 480 490 502 508 506 501 492 478 463 447 432 429 428 426 435 451 475 481 463 449 432 408 381 357 343 357 391 420 431 423 421 429 436 439 448 452 443 446 460 479 493 476 461 481 500 501 516 522 513 507 507 507 504 497 484 464 446 431 414 401 402 390 376 363 357 380 402 396 379 376 384 402 437 475 516 557 586 582 548 514 507 531 523 485 483 471 432 453 492 487 446 441 466 480 491 512 524 513 523 535 533 531 561 606 612 628 655 653 596 508 455 436 -9999 -9999 -9999 -9999 -9999 -9999 -9999 -9999 -9999 -9999 -9999 -9999 -9999 -9999 -9999 -9999 -9999 -9999 -9999 -9999 -9999 -9999 -9999 -9999 -9999 -9999 -9999 -9999 -9999 -9999 -9999 -9999 -9999 -9999 -9999 -9999 -9999 -9999 -9999 -9999 -9999 -9999 -9999 -9999 -9999 -9999 -9999 -9999 -9999 -9999 -9999 -9999 -9999 -9999 -9999 -9999 -9999 -9999 -9999 -9999 -9999 -9999 -9999 -9999 -9999 -9999 -9999 -9999 -9999 -9999 -9999 -9999 -9999 -9999 -9999 -9999 -9999 -9999 -9999 -9999 -9999 -9999 -9999 -9999 -9999 -9999 -9999 -9999 -9999 -9999 -9999 -9999 -9999 -9999 -9999 -9999 -9999 -9999 -9999 -9999 -9999 -9999 -9999 -9999 -9999 -9999 -9999 -9999 -9999 -9999 -9999 -9999 -9999 -9999 -9999 -9999 -9999 -9999 -9999 -9999 -9999 -9999 -9999 -9999 -9999 -9999 -9999 -9999 -9999 -9999 -9999 -9999 -9999 -9999 -9999 -9999 -9999 -9999 -9999 -9999 -9999 -9999 -9999 -9999 -9999 -9999 -9999 -9999 -9999 -9999 -9999 -9999 -9999 -9999 -9999 -9999 -9999 -9999 -9999 -9999 -9999 -9999 -9999 -9999 -9999 -9999 -9999 -9999 -9999 -9999 -9999 -9999 -9999 -9999 -9999 -9999 -9999 -9999 -9999 -9999 -9999 -9999 -9999 -9999 -9999 -9999 -9999 -9999 -9999 -9999 -9999 -9999 -9999 -9999 -9999 -9999 -9999 -9999 -9999 -9999 -9999 -9999 -9999 -9999 -9999 -9999 -9999 -9999 -9999 -9999 -9999 -9999 -9999 -9999 -9999 -9999 -9999 -9999 -9999 -9999 -9999 -9999 -9999 -9999 -9999 -9999 -9999 -9999 -9999 -9999 -9999 -9999 -9999 -9999 -9999 -9999 -9999 -9999 -9999 -9999 -9999 -9999 -9999 -9999 -9999 -9999 -9999 -9999 -9999 -9999 -9999 -9999 -9999 -9999 -9999 -9999 -9999 -9999 -9999 -9999 -9999 -9999 -9999 -9999 -9999 -9999 -9999 -9999 -9999 -9999
